# .PCD v0.7 - Point Cloud Data file format
VERSION 0.7
FIELDS x y z
SIZE 4 4 4
TYPE F F F
COUNT 1 1 1
WIDTH 1279
HEIGHT 1
VIEWPOINT 0 0 0 1 0 0 0
POINTS 1279
DATA ascii
-0.024232235 -0.10597206 0.050205626
-0.025791317 -0.10597206 0.050205626
-0.027350487 -0.10597206 0.050205626
-0.028909756 -0.10597206 0.050205626
-0.03046914 -0.10597206 0.050205626
-0.032028645 -0.10597206 0.050205626
-0.033588286 -0.10597206 0.050205626
-0.035147976 -0.1059742 0.050208963
-0.036707919 -0.1059742 0.050208963
-0.038262174 -0.10608123 0.050376479
-0.039828215 -0.10597623 0.050212156
-0.041436542 -0.10520227 0.049000751
0.064565554 -0.077845342 0.011072132
0.058826059 -0.10268992 0.049699601
0.057113156 -0.10353937 0.051020294
0.055540092 -0.10353937 0.051020294
0.053967573 -0.10353937 0.051020294
0.052395552 -0.10353937 0.051020294
0.050823741 -0.10354151 0.051023636
0.049252741 -0.10354151 0.051023636
0.047682222 -0.10354151 0.051023636
0.04611218 -0.10354151 0.051023636
0.044542588 -0.10354151 0.051023636
0.042973455 -0.10354151 0.051023636
0.041404743 -0.10354151 0.051023636
0.039836463 -0.10354151 0.051023636
0.03826835 -0.10354355 0.051026817
0.036700889 -0.10354355 0.051026817
0.035133809 -0.10354355 0.051026817
0.033567108 -0.10354355 0.051026817
0.032000765 -0.10354355 0.051026817
0.030434772 -0.10354355 0.051026821
0.028869122 -0.10354355 0.051026821
0.027303796 -0.10354355 0.051026821
0.025738787 -0.10354355 0.051026821
0.024173893 -0.1035457 0.051030148
0.022609483 -0.1035457 0.051030148
0.02104535 -0.1035457 0.051030148
0.019481488 -0.1035457 0.051030148
0.017917879 -0.1035457 0.051030152
0.016354512 -0.1035457 0.051030152
0.014791379 -0.1035457 0.051030152
0.013228334 -0.10354781 0.051033437
0.011665635 -0.10354781 0.051033437
0.010103129 -0.10354781 0.051033437
0.0085408073 -0.10354781 0.051033437
0.0069786585 -0.10354781 0.051033437
0.0054166685 -0.10354781 0.051033437
0.0038548277 -0.10354781 0.051033437
0.0022931227 -0.10354781 0.051033437
0.00073147163 -0.10354993 0.051036716
-0.00082999031 -0.10354993 0.051036716
-0.0023913526 -0.10354993 0.051036716
-0.0039526257 -0.10354993 0.051036716
-0.0055138203 -0.10354993 0.051036716
-0.0070749512 -0.10354993 0.051036716
-0.0086360276 -0.10354993 0.051036716
-0.010197083 -0.10355207 0.051040057
-0.011758081 -0.10355207 0.051040057
-0.013319061 -0.10355207 0.051040057
-0.014880036 -0.10355207 0.051040057
-0.016441016 -0.10355207 0.051040057
-0.018002015 -0.10355207 0.051040057
-0.019563042 -0.10355207 0.051040057
-0.021124111 -0.10355207 0.051040057
-0.022685235 -0.10355207 0.051040057
-0.024246376 -0.10355411 0.051043238
-0.025807634 -0.10355411 0.051043238
-0.02736898 -0.10355411 0.051043238
-0.028930424 -0.10355411 0.051043238
-0.030491985 -0.10355411 0.051043238
-0.032053668 -0.10355411 0.051043238
-0.033615489 -0.10355411 0.051043238
-0.035177454 -0.10355411 0.051043238
-0.036739472 -0.10355629 0.051046621
-0.038301762 -0.10355629 0.051046621
-0.039874796 -0.10337439 0.050763804
-0.041489266 -0.10254344 0.0494719
0.064195871 -0.078157172 0.016397692
0.0589858 -0.099908866 0.049992058
0.057312489 -0.10049239 0.050893284
0.055735022 -0.10049239 0.050893284
0.054158099 -0.10049239 0.050893284
0.052581683 -0.10049239 0.050893284
0.051005781 -0.10049239 0.050893284
0.04943008 -0.10049448 0.050896499
0.047855165 -0.10049448 0.050896499
0.046280727 -0.10049448 0.050896499
0.044706743 -0.10049448 0.050896499
0.043133214 -0.10049448 0.050896499
0.041560113 -0.10049448 0.050896499
0.039987441 -0.10049448 0.050896499
0.038415186 -0.10049448 0.050896499
0.036843084 -0.10049663 0.05089983
0.035271619 -0.10049663 0.05089983
0.033700529 -0.10049663 0.05089983
0.032129802 -0.10049663 0.05089983
0.030559424 -0.10049663 0.05089983
0.028989393 -0.10049663 0.05089983
0.027419686 -0.10049663 0.05089983
0.025850296 -0.10049663 0.05089983
0.024281025 -0.10049878 0.05090316
0.022712234 -0.10049878 0.05090316
0.021143723 -0.10049878 0.05090316
0.019575484 -0.10049878 0.05090316
0.018007498 -0.10049878 0.05090316
0.016439756 -0.10049878 0.05090316
0.01487211 -0.1005009 0.050906438
0.013304828 -0.1005009 0.050906438
0.011737753 -0.1005009 0.050906438
0.010170873 -0.1005009 0.050906438
0.0086041801 -0.1005009 0.050906438
0.0070376582 -0.1005009 0.050906438
0.0054712966 -0.1005009 0.050906438
0.0039050838 -0.1005009 0.050906438
0.0023390071 -0.1005009 0.050906438
0.00077298365 -0.10050309 0.05090981
-0.00079284899 -0.10050309 0.05090981
-0.0023585812 -0.10050309 0.05090981
-0.0039242227 -0.10050309 0.05090981
-0.0054897871 -0.10050309 0.05090981
-0.0070552882 -0.10050309 0.05090981
-0.0086207343 -0.10050309 0.05090981
-0.010186139 -0.10050309 0.05090981
-0.011751524 -0.10050514 0.050912984
-0.013316874 -0.10050514 0.050912984
-0.014882219 -0.10050514 0.050912984
-0.016447568 -0.10050514 0.050912984
-0.018012937 -0.10050514 0.050912984
-0.019578334 -0.10050514 0.050912984
-0.021143774 -0.10050514 0.050912984
-0.022709265 -0.10050514 0.050912984
-0.024274776 -0.10050729 0.050916314
-0.025840402 -0.10050729 0.050916314
-0.027406119 -0.10050729 0.050916314
-0.028971935 -0.10050729 0.050916314
-0.030537864 -0.10050729 0.050916314
-0.032103918 -0.10050729 0.050916314
-0.033670109 -0.10050729 0.050916314
-0.035236448 -0.10050729 0.050916314
-0.036802839 -0.10050941 0.050919589
-0.038369507 -0.10050941 0.050919589
-0.03997343 -0.099868141 0.049929183
0.060873024 -0.096259378 0.048966192
0.059145913 -0.097120009 0.05028658
0.057512946 -0.097430609 0.050763112
0.055931054 -0.097430609 0.050763112
0.054349698 -0.097430609 0.050763112
0.052768856 -0.097430609 0.050763112
0.051188536 -0.097430609 0.050763115
0.049608715 -0.097430609 0.050763115
0.048029065 -0.0974328 0.050766487
0.046450205 -0.0974328 0.050766487
0.044871803 -0.0974328 0.050766487
0.04329386 -0.0974328 0.050766487
0.041716341 -0.0974328 0.050766487
0.040139258 -0.0974328 0.050766487
0.038562585 -0.0974328 0.050766487
0.036986317 -0.0974328 0.050766487
0.035410199 -0.097434923 0.050769754
0.033834703 -0.097434923 0.050769754
0.032259565 -0.097434923 0.050769754
0.03068478 -0.097434923 0.050769754
0.029110342 -0.097434923 0.050769754
0.027536232 -0.097434923 0.050769754
0.025962435 -0.097434923 0.050769754
0.02438876 -0.097437054 0.050773021
0.022815567 -0.097437054 0.050773021
0.021242652 -0.097437054 0.050773021
0.01967001 -0.097437054 0.050773021
0.018097624 -0.097437054 0.050773021
0.016525481 -0.097437054 0.050773021
0.014953572 -0.097437054 0.050773021
0.013381749 -0.097439252 0.050776381
0.011810277 -0.097439252 0.050776381
0.010239 -0.097439252 0.050776381
0.0086679086 -0.097439252 0.050776381
0.0070969891 -0.097439252 0.050776381
0.0055262316 -0.097439252 0.050776381
0.0039556231 -0.097439252 0.050776381
0.0023851506 -0.097439252 0.050776381
0.00081473315 -0.097441383 0.050779648
-0.0007554944 -0.097441383 0.050779648
-0.0023256224 -0.097441383 0.050779648
-0.003895659 -0.097441383 0.050779648
-0.0054656183 -0.097441383 0.050779648
-0.0070355134 -0.097441383 0.050779648
-0.0086053535 -0.097441383 0.050779648
-0.010175152 -0.097441383 0.050779648
-0.011744932 -0.097443543 0.050782967
-0.013314676 -0.097443543 0.050782967
-0.014884414 -0.097443543 0.050782967
-0.016454158 -0.097443543 0.050782967
-0.018023919 -0.097443543 0.050782967
-0.01959371 -0.097443543 0.050782967
-0.021163544 -0.097443543 0.050782967
-0.022733429 -0.097443543 0.050782967
-0.024303334 -0.097445704 0.050786287
-0.025873356 -0.097445704 0.050786287
-0.027443467 -0.097445704 0.05078629
-0.029013677 -0.097445704 0.05078629
-0.030584004 -0.097445704 0.05078629
-0.032154452 -0.097445704 0.05078629
-0.033725038 -0.097445704 0.05078629
-0.035295773 -0.097445704 0.05078629
-0.036866561 -0.097447857 0.05078961
-0.038455941 -0.097109221 0.050270054
-0.040072817 -0.096337341 0.049085811
0.061038293 -0.093451209 0.049254149
0.059301771 -0.094351761 0.050626662
0.057714529 -0.094353929 0.05062997
0.056128182 -0.094353929 0.05062997
0.054542378 -0.094353929 0.05062997
0.052957088 -0.094353929 0.05062997
0.051372319 -0.094353929 0.05062997
0.049788043 -0.094353929 0.05062997
0.048204251 -0.094353929 0.05062997
0.046620648 -0.094356127 0.050633334
0.045037802 -0.094356127 0.050633334
0.043455418 -0.094356127 0.050633334
0.041873459 -0.094356127 0.050633334
0.040291935 -0.094356127 0.050633334
0.038710825 -0.094356127 0.050633334
0.037130121 -0.094356127 0.050633334
0.035549562 -0.094358303 0.050636642
0.03396963 -0.094358303 0.050636642
0.032390058 -0.094358303 0.050636642
0.030810844 -0.094358303 0.050636642
0.029231973 -0.094358303 0.050636642
0.02765343 -0.094358303 0.050636642
0.026075203 -0.094358303 0.050636642
0.024497092 -0.094360501 0.050640002
0.022919472 -0.094360501 0.050640002
0.021342132 -0.094360501 0.050640002
0.019765064 -0.094360501 0.050640002
0.018188249 -0.094360501 0.050640002
0.016611682 -0.094360501 0.050640002
0.015035348 -0.094360501 0.050640002
0.013459107 -0.094362639 0.050643258
0.01188321 -0.094362639 0.050643258
0.010307509 -0.094362639 0.050643262
0.0087319966 -0.094362639 0.050643262
0.0071566552 -0.094362639 0.050643262
0.0055814758 -0.094362639 0.050643262
0.0040064473 -0.094362639 0.050643262
0.0024315531 -0.094362639 0.050643262
0.00085671549 -0.094364807 0.05064657
-0.00071793306 -0.094364807 0.05064657
-0.0022924792 -0.094364807 0.05064657
-0.0038669358 -0.094364807 0.05064657
-0.0054413145 -0.094364807 0.05064657
-0.0070156283 -0.094364807 0.05064657
-0.0085898871 -0.094364807 0.05064657
-0.010164104 -0.094364807 0.05064657
-0.011738292 -0.094364807 0.05064657
-0.013312466 -0.094366983 0.050649878
-0.014886621 -0.094366983 0.050649878
-0.016460784 -0.094366983 0.050649878
-0.018034965 -0.094366983 0.050649878
-0.019609174 -0.094366983 0.050649878
-0.021183426 -0.094366983 0.050649878
-0.022757731 -0.094366983 0.050649878
-0.024332102 -0.094366983 0.050649878
-0.025906494 -0.094369181 0.050653242
-0.027481025 -0.094369181 0.050653242
-0.029055655 -0.094369181 0.050653242
-0.030630402 -0.094369181 0.050653242
-0.032205269 -0.094369181 0.050653242
-0.033780277 -0.094369181 0.050653242
-0.035355434 -0.094369181 0.050653242
-0.036930751 -0.094369181 0.050653242
-0.038545579 -0.093639061 0.049540449
0.064849779 -0.078451835 0.031098029
0.061203934 -0.090635121 0.049544372
0.059508972 -0.091259994 0.050490484
0.057917587 -0.091259994 0.050490484
0.056326419 -0.091262206 0.050493836
0.054736137 -0.091262206 0.050493836
0.05314637 -0.091262206 0.050493836
0.051557131 -0.091262206 0.050493836
0.049968384 -0.091262206 0.050493836
0.048380122 -0.091262206 0.050493836
0.046792343 -0.091262206 0.050493836
0.045204736 -0.091264419 0.050497185
0.043617882 -0.091264419 0.050497185
0.04203146 -0.091264419 0.050497185
0.040445469 -0.091264419 0.050497185
0.038859896 -0.091264419 0.050497185
0.037274729 -0.091264419 0.050497185
0.035689712 -0.091266595 0.050500486
0.03410532 -0.091266595 0.050500486
0.032521289 -0.091266595 0.050500486
0.030937616 -0.091266595 0.050500486
0.029354289 -0.091266595 0.050500486
0.02777129 -0.091266595 0.050500486
0.026188608 -0.091266595 0.050500486
0.024606232 -0.091266595 0.050500486
0.023023974 -0.091268778 0.050503783
0.021442179 -0.091268778 0.050503783
0.019860659 -0.091268778 0.050503783
0.018279396 -0.091268778 0.050503783
0.016698377 -0.091268778 0.050503783
0.015117593 -0.091268778 0.050503783
0.013537033 -0.091268778 0.050503783
0.011956556 -0.091270961 0.050507084
0.010376407 -0.091270961 0.050507084
0.008796446 -0.091270961 0.050507084
0.0072166589 -0.091270961 0.050507084
0.0056370334 -0.091270961 0.050507084
0.0040575569 -0.091270961 0.050507084
0.0024782182 -0.091270961 0.050507084
0.00089900702 -0.091270961 0.050507084
-0.00068015844 -0.091273174 0.050510433
-0.0022591497 -0.091273174 0.050510433
-0.0038380506 -0.091273166 0.050510433
-0.0054168724 -0.091273166 0.050510433
-0.0069956305 -0.091273166 0.050510433
-0.008574334 -0.091273166 0.050510433
-0.010152995 -0.091273166 0.050510433
-0.011731626 -0.091273166 0.050510433
-0.013310242 -0.091275379 0.050513785
-0.014888842 -0.091275379 0.050513785
-0.016467448 -0.091275379 0.050513785
-0.018046072 -0.091275379 0.050513785
-0.019624725 -0.091275379 0.050513785
-0.021203419 -0.091275379 0.050513785
-0.022782169 -0.091275379 0.050513785
-0.024360985 -0.091275379 0.050513785
-0.02593982 -0.091277592 0.050517138
-0.027518796 -0.091277592 0.050517138
-0.02909787 -0.091277592 0.050517138
-0.030677062 -0.091277592 0.050517138
-0.032256376 -0.091277592 0.050517138
-0.033835828 -0.091277592 0.050517138
-0.03541543 -0.091277592 0.050517138
-0.036995199 -0.091277592 0.050517138
-0.03864003 -0.090068214 0.048686046
0.063117474 -0.086920619 0.048497632
0.061371036 -0.087804407 0.049826976
0.059717342 -0.088152982 0.050351262
0.058121458 -0.088152982 0.050351262
0.056526124 -0.088152982 0.050351262
0.054931 -0.088155203 0.0503546
0.053336732 -0.088155203 0.0503546
0.051742993 -0.088155203 0.0503546
0.050149746 -0.088155203 0.0503546
0.048556991 -0.088155203 0.0503546
0.046964716 -0.088155203 0.050354604
0.045372903 -0.088155203 0.050354604
0.043781277 -0.088157386 0.050357901
0.042190362 -0.088157386 0.050357901
0.040599883 -0.088157386 0.050357901
0.039009821 -0.088157386 0.050357901
0.037420169 -0.088157386 0.050357901
0.0358309 -0.088157386 0.050357901
0.034241781 -0.088159606 0.050361242
0.032653268 -0.088159606 0.050361242
0.03106511 -0.088159606 0.050361242
0.029477302 -0.088159606 0.050361242
0.027889822 -0.088159606 0.050361242
0.026302658 -0.088159606 0.050361242
0.024715804 -0.088159606 0.050361242
0.023129065 -0.088161826 0.05036458
0.021542791 -0.088161826 0.05036458
0.019956794 -0.088161826 0.05036458
0.018371053 -0.088161826 0.050364584
0.016785562 -0.088161826 0.050364584
0.015200303 -0.088161826 0.050364584
0.013615268 -0.088161826 0.050364584
0.012030442 -0.088161826 0.050364584
0.010445693 -0.088164084 0.050367974
0.0088612596 -0.088164084 0.050367974
0.0072769993 -0.088164084 0.050367974
0.0056929034 -0.088164084 0.050367974
0.0041089547 -0.088164084 0.050367974
0.0025251459 -0.088164084 0.050367977
0.00094146433 -0.088164084 0.050367977
-0.00064210629 -0.088164084 0.050367977
-0.0022256321 -0.088166304 0.050371315
-0.0038090015 -0.088166304 0.050371315
-0.005392293 -0.088166304 0.050371315
-0.0069755204 -0.088166304 0.050371315
-0.0085586915 -0.088166304 0.050371315
-0.010141822 -0.088166304 0.050371315
-0.011724921 -0.088166304 0.050371315
-0.013308003 -0.088166304 0.050371315
-0.014891075 -0.088168524 0.050374657
-0.016474148 -0.088168524 0.050374657
-0.01805724 -0.088168524 0.050374657
-0.019640362 -0.088168524 0.050374657
-0.021223526 -0.088168524 0.050374657
-0.022806745 -0.088168524 0.050374657
-0.024390029 -0.088168524 0.050374657
-0.025973393 -0.088168524 0.050374657
-0.027556779 -0.088170737 0.05037801
-0.029140323 -0.088170737 0.05037801
-0.030723985 -0.088170737 0.05037801
-0.03230777 -0.088170737 0.05037801
-0.033891693 -0.088170737 0.05037801
-0.035475768 -0.088170737 0.05037801
-0.037060007 -0.088170737 0.05037801
0.063288778 -0.084076598 0.048783585
0.061527885 -0.085030518 0.050209023
0.059926897 -0.085030518 0.050209023
0.058326483 -0.085030518 0.050209023
0.05672662 -0.085030518 0.050209023
0.0551273 -0.085030518 0.050209027
0.053528175 -0.085032754 0.050212353
0.051929913 -0.085032754 0.050212353
0.050332144 -0.085032754 0.050212353
0.048734866 -0.085032754 0.050212353
0.047138073 -0.085032754 0.050212353
0.045541741 -0.085032754 0.050212353
0.043945871 -0.085032754 0.050212353
0.042350154 -0.085035019 0.050215736
0.04075516 -0.085035019 0.050215736
0.039160587 -0.085035019 0.050215736
0.03756642 -0.085035019 0.05021574
0.03597264 -0.085035019 0.05021574
0.034379244 -0.085035019 0.05021574
0.032785989 -0.085037239 0.050219078
0.031193323 -0.085037239 0.050219078
0.029601008 -0.085037239 0.050219078
0.02800902 -0.085037239 0.050219078
0.026417352 -0.085037239 0.050219078
0.024825994 -0.085037239 0.050219078
0.023234747 -0.085039504 0.05022246
0.02164397 -0.085039504 0.05022246
0.020053472 -0.085039504 0.05022246
0.018463228 -0.085039504 0.05022246
0.016873237 -0.085039504 0.05022246
0.015283477 -0.085039504 0.05022246
0.013693945 -0.085039504 0.05022246
0.012104618 -0.085039504 0.05022246
0.010515372 -0.085041739 0.050225791
0.008926441 -0.085041739 0.050225791
0.0073376847 -0.085041739 0.050225791
0.0057490906 -0.085041739 0.050225791
0.0041606473 -0.085041739 0.050225791
0.0025723416 -0.085041739 0.050225791
0.00098416384 -0.085041739 0.050225791
-0.0006039014 -0.085041739 0.050225791
-0.0021919247 -0.085044034 0.050229229
-0.0037797897 -0.085044034 0.050229229
-0.0053675743 -0.085044034 0.050229229
-0.0069552958 -0.085044034 0.050229229
-0.0085429614 -0.085044034 0.050229229
-0.010130585 -0.085044034 0.050229229
-0.011718178 -0.085044034 0.050229229
-0.013305754 -0.085044034 0.050229229
-0.01489332 -0.085046194 0.050232463
-0.016480887 -0.085046194 0.050232463
-0.018068474 -0.085046194 0.050232463
-0.01965609 -0.085046194 0.050232463
-0.021243749 -0.085046194 0.050232463
-0.022831462 -0.085046194 0.050232463
-0.024419241 -0.085046194 0.050232463
-0.026007099 -0.085046194 0.050232463
-0.027595045 -0.085046194 0.050232463
-0.029183021 -0.08504843 0.050235793
-0.030771179 -0.08504843 0.050235793
-0.032359459 -0.08504843 0.050235793
-0.033947878 -0.08504843 0.050235793
-0.035536449 -0.08504843 0.050235793
-0.03714785 -0.084593348 0.049555775
0.063375272 -0.081736431 0.049832124
0.061635382 -0.082554147 0.051046051
0.060032129 -0.082554147 0.051046051
0.058429435 -0.082554147 0.051046051
0.056827299 -0.082554147 0.051046051
0.055225708 -0.082554147 0.051046051
0.053624637 -0.082554147 0.051046051
0.052024089 -0.082554147 0.051046051
0.050423734 -0.082556427 0.051049422
0.048824184 -0.082556427 0.051049422
0.047225118 -0.082556427 0.051049422
0.045626517 -0.082556427 0.051049422
0.044028379 -0.082556427 0.051049422
0.042430673 -0.082556427 0.051049422
0.040833134 -0.082558699 0.051052794
0.039236292 -0.082558699 0.051052794
0.03763986 -0.082558699 0.051052794
0.036043815 -0.082558699 0.051052794
0.034448154 -0.082558699 0.051052794
0.032852858 -0.082558699 0.051052794
0.031257704 -0.082560934 0.051056124
0.029663129 -0.082560934 0.051056124
0.028068876 -0.082560934 0.051056124
0.026474947 -0.082560934 0.051056124
0.024881324 -0.082560934 0.051056124
0.023287999 -0.082560934 0.051056124
0.021694778 -0.082563244 0.051059548
0.020102018 -0.082563244 0.051059548
0.018509516 -0.082563244 0.051059552
0.016917262 -0.082563236 0.051059552
0.015325242 -0.082563236 0.051059552
0.013733449 -0.082563236 0.051059552
0.012141866 -0.082563236 0.051059552
0.010550362 -0.082565442 0.051062826
0.0089591732 -0.082565442 0.051062826
0.0073681576 -0.082565442 0.051062826
0.0057773059 -0.082565442 0.051062826
0.0041866032 -0.082565442 0.051062826
0.0025960403 -0.082565442 0.051062826
0.0010056058 -0.082565442 0.051062826
-0.00058471778 -0.082565442 0.051062826
-0.0021749381 -0.082565442 0.051062826
-0.0037651174 -0.082567684 0.051066145
-0.0053551607 -0.082567684 0.051066145
-0.0069451388 -0.082567684 0.051066149
-0.008535061 -0.082567684 0.051066149
-0.010124942 -0.082567684 0.051066149
-0.011714792 -0.082567684 0.051066149
-0.013304625 -0.082567684 0.051066149
-0.014894451 -0.082567684 0.051066149
-0.016484272 -0.082569957 0.05106952
-0.018074114 -0.082569957 0.05106952
-0.019663988 -0.082569957 0.05106952
-0.021253902 -0.082569957 0.05106952
-0.022843871 -0.082569957 0.05106952
-0.024433907 -0.082569957 0.05106952
-0.026024021 -0.082569957 0.05106952
-0.027614227 -0.082569957 0.05106952
-0.029204458 -0.082572192 0.051072851
-0.030794874 -0.082572192 0.051072851
-0.032385413 -0.082572192 0.051072851
-0.033976089 -0.082572192 0.051072851
-0.035566919 -0.082572192 0.051072851
-0.037194997 -0.081824601 0.049963027
-0.093378775 -0.050276194 0.0031288406
-0.095058925 -0.0504876 0.003442666
0.063548103 -0.078873403 0.050114244
0.06185168 -0.079404429 0.050897438
0.06024348 -0.079406746 0.050900854
0.058636218 -0.079406746 0.050900854
0.057029508 -0.079406746 0.050900854
0.055423357 -0.079406746 0.050900854
0.053817719 -0.079406746 0.050900854
0.052212611 -0.079406746 0.050900854
0.050608002 -0.079406746 0.050900854
0.049003579 -0.079409026 0.050904226
0.047399953 -0.079409026 0.050904226
0.045796797 -0.079409026 0.050904226
0.044194102 -0.079409026 0.050904226
0.04259184 -0.079409026 0.050904226
0.040990017 -0.079409026 0.050904226
0.039388347 -0.079411373 0.050907694
0.037787363 -0.079411373 0.050907694
0.03618677 -0.079411373 0.050907694
0.03458656 -0.079411373 0.050907694
0.032986715 -0.079411373 0.050907694
0.031387232 -0.079411373 0.050907694
0.029787892 -0.079413585 0.050910961
0.028189098 -0.079413585 0.050910961
0.026590621 -0.079413585 0.050910961
0.024992457 -0.079413585 0.050910961
0.02339459 -0.079413585 0.050910961
0.021797007 -0.079413585 0.050910961
0.020199696 -0.079413585 0.050910961
0.018602485 -0.079415902 0.050914373
0.017005691 -0.079415902 0.050914373
0.015409133 -0.079415902 0.050914373
0.013812802 -0.079415902 0.050914373
0.012216679 -0.079415902 0.050914373
0.010620757 -0.079415902 0.050914373
0.0090249134 -0.079418115 0.05091764
0.0074293627 -0.079418115 0.05091764
0.0058339755 -0.079418115 0.05091764
0.0042387391 -0.079418115 0.05091764
0.0026436404 -0.079418115 0.05091764
0.0010486713 -0.079418115 0.05091764
-0.00054618507 -0.079418115 0.05091764
-0.0021409399 -0.079418115 0.05091764
-0.0037356548 -0.079420432 0.050921056
-0.0053302296 -0.079420432 0.050921056
-0.006924741 -0.079420432 0.050921056
-0.0085191969 -0.079420432 0.050921056
-0.01011361 -0.079420432 0.050921056
-0.011707992 -0.079420432 0.050921056
-0.013302357 -0.079420432 0.050921056
-0.014896716 -0.079420432 0.050921056
-0.016491069 -0.07942269 0.050924364
-0.018085444 -0.07942269 0.050924364
-0.01967985 -0.07942269 0.050924364
-0.021274297 -0.07942269 0.050924364
-0.022868799 -0.079422683 0.050924364
-0.024463369 -0.079422683 0.050924364
-0.026058016 -0.079422683 0.050924364
-0.027652755 -0.079422683 0.050924364
-0.029247517 -0.079424992 0.050927788
-0.030842466 -0.079424992 0.050927792
-0.032437541 -0.079424992 0.050927792
-0.034032755 -0.079424992 0.050927792
-0.035638493 -0.079199485 0.050595187
-0.037281618 -0.078251794 0.049197495
-0.06789244 -0.046777312 0.0027775224
-0.069580689 -0.046993397 0.0030961949
-0.071268201 -0.047206745 0.0034108637
-0.072954699 -0.047419965 0.0037253215
-0.074614428 -0.047845818 0.0043533943
-0.076298259 -0.048058458 0.0046669985
-0.077981137 -0.048270922 0.0049803606
-0.079663061 -0.048483182 0.0052934168
-0.081344061 -0.048695244 0.0056061679
-0.083024144 -0.048907168 0.0059187184
-0.084703319 -0.049118914 0.0062310267
-0.086350925 -0.049541909 0.0068548741
-0.088027656 -0.049753055 0.007166266
-0.089703515 -0.049964085 0.0074775205
-0.09137854 -0.050174925 0.0077884588
-0.093052723 -0.050385583 0.0080991555
-0.094726093 -0.050596107 0.008409651
-0.096644133 -0.049325328 0.0065354332
0.054245993 -0.074624188 0.048380036
0.052669667 -0.074348561 0.047976177
0.050793014 -0.076243445 0.050752673
0.049184307 -0.076243445 0.050752673
0.047575787 -0.076245807 0.05075613
0.045968045 -0.076245807 0.05075613
0.044360764 -0.076245807 0.05075613
0.042753924 -0.076245807 0.05075613
0.041147523 -0.076245807 0.05075613
0.039541543 -0.076245807 0.05075613
0.037935972 -0.076245807 0.05075613
0.036330543 -0.076248139 0.050759535
0.034725759 -0.076248139 0.050759535
0.033121344 -0.076248139 0.050759535
0.031517286 -0.076248139 0.050759535
0.029913584 -0.076248139 0.050759535
0.028310208 -0.076248139 0.050759535
0.026706962 -0.076250359 0.050762791
0.02510423 -0.076250359 0.050762791
0.023501793 -0.076250359 0.050762791
0.021899639 -0.076250359 0.050762791
0.020297764 -0.076250359 0.050762791
0.018696146 -0.076250359 0.050762791
0.017094627 -0.076252677 0.050766204
0.015493504 -0.076252677 0.050766204
0.013892609 -0.076252677 0.050766207
0.012291922 -0.076252677 0.050766207
0.010691437 -0.076252677 0.050766207
0.0090911416 -0.076252677 0.050766207
0.0074910219 -0.076252677 0.050766207
0.0058909669 -0.076254971 0.050769556
0.0042911689 -0.076254971 0.050769556
0.0026915125 -0.076254971 0.050769556
0.0010919818 -0.076254971 0.050769556
-0.00050743442 -0.076254971 0.050769556
-0.002106749 -0.076254971 0.050769556
-0.0037059705 -0.076254971 0.050769556
-0.0053051566 -0.076257259 0.05077292
-0.0069042263 -0.076257259 0.05077292
-0.0085032405 -0.076257259 0.05077292
-0.010102211 -0.076257259 0.05077292
-0.011701153 -0.076257259 0.05077292
-0.013300076 -0.076257259 0.05077292
-0.014898993 -0.076257259 0.05077292
-0.016497917 -0.076257259 0.05077292
-0.018096838 -0.076259553 0.050776269
-0.019695804 -0.076259553 0.050776269
-0.02129481 -0.076259553 0.050776269
-0.02289387 -0.076259553 0.050776269
-0.024492998 -0.076259553 0.050776269
-0.026092205 -0.076259553 0.050776269
-0.027691502 -0.076259553 0.050776269
-0.029290825 -0.076261871 0.050779685
-0.030890334 -0.076261871 0.050779685
-0.032489967 -0.076261871 0.050779685
-0.03408974 -0.076261871 0.050779685
-0.03572702 -0.075446717 0.049585275
-0.050826646 -0.044338148 0.0040031932
-0.052504212 -0.044767603 0.0046324669
-0.054196309 -0.044981994 0.0049465979
-0.055887271 -0.045196213 0.0052604764
-0.057577103 -0.04541029 0.0055741649
-0.059265826 -0.045624163 0.005887548
-0.060953449 -0.045837898 0.0062007308
-0.062639996 -0.046051435 0.0065136082
-0.064304113 -0.046477951 0.0071385726
-0.06598784 -0.046690878 0.0074505438
-0.067670524 -0.046903655 0.0077623255
-0.069352187 -0.047116298 0.0080739064
-0.071032837 -0.04732877 0.0083852354
-0.072712503 -0.047541 0.0086962162
-0.074365616 -0.047964953 0.0093174186
-0.07604263 -0.04817671 0.0096276933
-0.077718705 -0.048388191 0.0099375676
-0.079393841 -0.048599537 0.010247242
-0.081068039 -0.048810776 0.010556769
-0.08274135 -0.049021754 0.010865884
-0.084413759 -0.049232583 0.01117481
-0.086054869 -0.049653701 0.01179185
-0.087724842 -0.049864016 0.012100029
-0.089393966 -0.050074171 0.012407944
-0.09106227 -0.050284009 0.012715415
-0.09272974 -0.050493773 0.013022793
-0.094396405 -0.05070338 0.013329906
-0.096248969 -0.049781956 0.011979784
0.036681887 -0.071129911 0.047785819
0.034865763 -0.07306882 0.050608404
0.033256743 -0.07306882 0.050608404
0.031648088 -0.07306882 0.050608404
0.030039785 -0.07306882 0.050608404
0.028431812 -0.07306882 0.050608404
0.026824163 -0.07306882 0.050608404
0.025216637 -0.073071115 0.050611757
0.023609607 -0.073071115 0.050611757
0.022002859 -0.073071115 0.050611757
0.020396391 -0.073071115 0.050611757
0.01879018 -0.073071115 0.050611757
0.017184226 -0.073071115 0.050611757
0.015578356 -0.073073484 0.050615203
0.013972869 -0.073073484 0.050615203
0.012367595 -0.073073484 0.050615203
0.01076252 -0.073073484 0.050615203
0.0091576353 -0.073073484 0.050615203
0.0075529269 -0.073073484 0.050615203
0.0059483829 -0.073073484 0.050615203
0.0043439041 -0.073075719 0.050618447
0.0027396583 -0.073075719 0.050618447
0.0011355426 -0.073075719 0.050618447
-0.00046846023 -0.073075719 0.050618447
-0.0020723597 -0.073075719 0.050618447
-0.003676167 -0.073075719 0.050618447
-0.0052799392 -0.073078081 0.050621904
-0.0068835942 -0.073078081 0.050621904
-0.0084871929 -0.073078081 0.050621904
-0.010090749 -0.073078081 0.050621904
-0.011694275 -0.073078081 0.050621904
-0.013297782 -0.073078081 0.050621904
-0.014901284 -0.073078081 0.050621904
-0.016504792 -0.073078081 0.050621904
-0.018108297 -0.07308042 0.050625298
-0.019711846 -0.07308042 0.050625298
-0.021315437 -0.07308042 0.050625298
-0.022919083 -0.07308042 0.050625298
-0.024522796 -0.07308042 0.050625298
-0.026126588 -0.07308042 0.050625298
-0.027730471 -0.07308042 0.050625298
-0.029334381 -0.073082715 0.050628651
-0.030938476 -0.073082715 0.050628651
-0.032542698 -0.073082715 0.050628651
-0.034159031 -0.072799437 0.050216254
-0.035809994 -0.07180284 0.048765466
-0.049115274 -0.042409897 0.0059765391
-0.050675169 -0.044474408 0.008981958
-0.052345954 -0.044901922 0.0096043199
-0.054031149 -0.045115385 0.0099150799
-0.055715211 -0.045328721 0.010225629
-0.057398167 -0.045541804 0.01053584
-0.059080012 -0.045754794 0.010845893
-0.060760781 -0.045967571 0.011155652
-0.062440477 -0.046180181 0.011465157
-0.064097926 -0.046604779 0.012083272
-0.065774821 -0.046816874 0.01239203
-0.067450687 -0.047028724 0.012700439
-0.069125555 -0.047240406 0.013008596
-0.070799127 -0.047454491 0.013320251
-0.072471984 -0.047665868 0.013627956
-0.074118525 -0.048087958 0.014242426
-0.075788774 -0.048298754 0.014549276
-0.077458091 -0.048509374 0.014855884
-0.07912647 -0.048719812 0.015162249
-0.08079394 -0.048930094 0.015468352
-0.082460508 -0.049140196 0.015774211
-0.084126197 -0.049350128 0.016079819
-0.085760854 -0.049769301 0.016690042
-0.087424129 -0.049978718 0.016994901
-0.08908657 -0.050187964 0.017299507
-0.090748183 -0.050396971 0.017603764
-0.092408985 -0.050605796 0.017907782
-0.094068989 -0.050814528 0.018211639
-0.095857993 -0.050233893 0.017366363
0.020618929 -0.068173148 0.047995362
0.01902177 -0.067892112 0.0475889
0.017274184 -0.069875635 0.050457742
0.015663698 -0.06987799 0.050461125
0.014053596 -0.06987799 0.050461125
0.012443706 -0.06987799 0.050461125
0.010834016 -0.06987799 0.050461125
0.0092245154 -0.06987799 0.050461125
0.0076151937 -0.06987799 0.050461125
0.0060060341 -0.06987799 0.050461125
0.0043969378 -0.069880322 0.050464518
0.0027880797 -0.069880322 0.050464518
0.0011793514 -0.069880322 0.050464518
-0.00042926348 -0.069880322 0.050464518
-0.002037775 -0.069880322 0.050464518
-0.0036461942 -0.069880322 0.050464518
-0.0052545331 -0.069880322 0.050464518
-0.0068628429 -0.069882661 0.050467908
-0.0084710531 -0.069882661 0.050467908
-0.01007922 -0.069882661 0.050467908
-0.011687357 -0.069882661 0.050467912
-0.013295475 -0.069882661 0.050467912
-0.014903588 -0.069882661 0.050467912
-0.016511707 -0.069882661 0.050467912
-0.018119823 -0.069885015 0.050471295
-0.019727983 -0.069885015 0.050471295
-0.021336185 -0.069885015 0.050471295
-0.022944443 -0.069885015 0.050471295
-0.024552768 -0.069885015 0.050471295
-0.026161171 -0.069885015 0.050471295
-0.027769666 -0.069885015 0.050471295
-0.029378187 -0.069887348 0.050474685
-0.030986894 -0.069887348 0.050474688
-0.032595728 -0.069887348 0.050474688
-0.034242064 -0.069000013 0.049191292
-0.048964165 -0.042653229 0.011085012
-0.05055413 -0.044208702 0.013334727
-0.052188993 -0.045037318 0.014533204
-0.05386734 -0.045249883 0.014840645
-0.05554457 -0.045462243 0.01514779
-0.05722069 -0.045674503 0.015454778
-0.058895726 -0.045886513 0.015761428
-0.060569685 -0.046098396 0.016067866
-0.062242344 -0.046312574 0.016377658
-0.063893169 -0.046735402 0.016989198
-0.065563284 -0.046946514 0.017294552
-0.067232385 -0.04715747 0.017599642
-0.068900488 -0.047368236 0.017904501
-0.0705676 -0.047578845 0.018209096
-0.072233744 -0.047789242 0.018513396
-0.073873766 -0.048209507 0.019121259
-0.075537309 -0.04841942 0.019424865
-0.077199921 -0.048629165 0.019728217
-0.078861617 -0.048838697 0.020031275
-0.080522403 -0.049048059 0.020334078
-0.082182311 -0.049257245 0.02063664
-0.083841346 -0.0494662 0.020938843
-0.085469589 -0.049883716 0.021542715
-0.087126233 -0.050092176 0.021844232
-0.088782042 -0.050300505 0.022145541
-0.09043704 -0.050508659 0.022446606
-0.092091233 -0.050716609 0.022747366
-0.093744643 -0.050924383 0.023047885
-0.095470317 -0.050686181 0.022703366
0.019648535 -0.056946632 0.03633732
0.017978275 -0.057288688 0.036828846
0.016482171 -0.054866962 0.033348832
0.014913665 -0.053404875 0.031247823
0.013336033 -0.051934183 0.029134432
0.01174932 -0.050452143 0.027004739
0.010153163 -0.048963707 0.024865851
0.0085475938 -0.047466442 0.022714294
0.0069325282 -0.04596005 0.020549612
0.0045176204 -0.064923368 0.047799885
0.0029082615 -0.064639643 0.047392156
0.0012234151 -0.066668458 0.050307583
-0.00038983853 -0.066668458 0.050307583
-0.0020029889 -0.066668458 0.050307583
-0.0036160471 -0.066668458 0.050307583
-0.0052290242 -0.066668458 0.050307583
-0.0068419361 -0.066668458 0.050307583
-0.0084548192 -0.06667082 0.050310954
-0.010067624 -0.06667082 0.050310954
-0.011680399 -0.06667082 0.050310954
-0.013293155 -0.06667082 0.050310954
-0.014905905 -0.06667082 0.050310954
-0.016518662 -0.06667082 0.050310954
-0.018131416 -0.066673204 0.050314389
-0.019744212 -0.066673204 0.050314389
-0.021357052 -0.066673204 0.050314389
-0.022969948 -0.066673204 0.050314389
-0.024582909 -0.066673204 0.050314389
-0.026195953 -0.066673204 0.050314389
-0.027809085 -0.066673204 0.050314389
-0.029422244 -0.066675596 0.050317816
-0.031035591 -0.066675596 0.050317816
-0.032662399 -0.066329934 0.049821123
-0.034320887 -0.065287739 0.048323467
-0.048823327 -0.042766191 0.015960043
-0.050416294 -0.044190712 0.018007074
-0.052033119 -0.045176357 0.019423461
-0.05370466 -0.045388009 0.019727604
-0.055375095 -0.045599524 0.020031545
-0.05704445 -0.045810688 0.020334993
-0.058712713 -0.046021823 0.020638388
-0.060379915 -0.046232745 0.020941487
-0.06204607 -0.046443503 0.021244332
-0.063690335 -0.046864454 0.021849236
-0.065353736 -0.047074683 0.022151344
-0.067016132 -0.047284711 0.022453148
-0.068677545 -0.04749456 0.022754708
-0.070337974 -0.047704238 0.023056015
-0.071997434 -0.047913708 0.023357028
-0.073630996 -0.048332207 0.023958402
-0.075287879 -0.048541222 0.024258772
-0.076943845 -0.048750114 0.024558932
-0.078598917 -0.048958685 0.024858648
-0.080253087 -0.049167082 0.025158122
-0.081906371 -0.049375445 0.025457544
-0.083558798 -0.049583502 0.025756514
-0.085180685 -0.04999923 0.026353914
-0.086830378 -0.050209362 0.026655864
-0.088479601 -0.050416786 0.026953949
-0.090128034 -0.050623979 0.027251674
-0.091775663 -0.050831027 0.027549209
-0.093422517 -0.051037978 0.027846588
-0.095086299 -0.051136274 0.027987853
-0.096972696 -0.049897887 0.026208276
0.019507306 -0.057136998 0.041148603
0.017844131 -0.05747747 0.041634716
0.016364204 -0.054896273 0.037949435
0.014801417 -0.053439971 0.035870206
0.013229575 -0.051975053 0.033778686
0.011648592 -0.050501391 0.031674676
0.010058494 -0.049016409 0.029554497
0.008458931 -0.047525108 0.027425302
0.006849939 -0.046024848 0.025283314
0.0052897888 -0.042997137 0.020960532
0.003656795 -0.041472159 0.018783245
0.0020141168 -0.039935306 0.016589006
0.00036154926 -0.038389035 0.014381343
-0.0013010106 -0.036833331 0.012160183
-0.0029736669 -0.035268106 0.0099254511
-0.0046565239 -0.033693194 0.0076768845
-0.0063257124 -0.030514205 0.0031381105
-0.013287831 -0.061654061 0.047597811
-0.014911701 -0.061367609 0.047188841
-0.016525656 -0.063442469 0.050151207
-0.018143095 -0.063442469 0.050151207
-0.019760536 -0.063444823 0.050154578
-0.02137804 -0.063444823 0.050154578
-0.0229956 -0.063444823 0.050154578
-0.024613228 -0.063444823 0.050154578
-0.026230935 -0.063444823 0.050154578
-0.027848734 -0.063444823 0.050154578
-0.029466635 -0.063444823 0.050154578
-0.031084573 -0.06344723 0.050157994
-0.032739598 -0.06248761 0.048787903
-0.048683621 -0.042880334 0.02079377
-0.050279688 -0.044172302 0.022638369
-0.051878709 -0.045313753 0.024268074
-0.053543516 -0.045524478 0.024568928
-0.05520723 -0.04573499 0.024869489
-0.056869857 -0.045945399 0.0251699
-0.058531418 -0.046155564 0.025469964
-0.060191922 -0.046365593 0.02576983
-0.061851393 -0.046575379 0.026069347
-0.063489147 -0.046994571 0.026667831
-0.065145895 -0.047203828 0.026966611
-0.066801645 -0.047412917 0.027265137
-0.068456396 -0.047621977 0.027563611
-0.070109911 -0.04783329 0.027865309
-0.071762733 -0.048041888 0.02816315
-0.073389873 -0.04845858 0.028758064
-0.075040169 -0.048666585 0.029055063
-0.076689541 -0.048874538 0.029351944
-0.078338012 -0.049082268 0.029648542
-0.079985596 -0.049289864 0.029944941
-0.081632316 -0.049497224 0.030240981
-0.083278179 -0.049704473 0.030536883
-0.084893748 -0.050118417 0.031127887
-0.086537272 -0.050325107 0.031422999
-0.088179991 -0.050531592 0.031717807
-0.08982151 -0.050740547 0.032016132
-0.091462635 -0.050946645 0.032310404
-0.093102969 -0.051152751 0.032604661
-0.094709136 -0.051564202 0.033192094
-0.096582443 -0.050352849 0.03146261
0.021092055 -0.056065507 0.044127237
0.01943705 -0.056305714 0.044467982
0.01777756 -0.056643605 0.044947319
0.016305562 -0.053979356 0.041167904
0.014745617 -0.052523173 0.039102215
0.013176655 -0.051058382 0.037024312
0.011598583 -0.049584884 0.034934036
0.010011308 -0.048102666 0.032831416
0.0084148552 -0.04660894 0.030712482
0.0068088863 -0.045108851 0.028584486
0.0052515641 -0.042081613 0.024290143
0.0036216844 -0.040556833 0.022127155
0.0019821599 -0.039020214 0.019947352
0.0003327819 -0.037474245 0.017754303
-0.0013265491 -0.035918869 0.015547904
-0.0029959355 -0.034353949 0.013327955
-0.0046754838 -0.032779481 0.011094457
-0.0063414173 -0.029601293 0.0065859859
-0.0080468031 -0.027997406 0.0043107616
-0.021415735 -0.059092745 0.048421584
-0.023046954 -0.058804374 0.048012506
-0.024628453 -0.060905255 0.050992761
-0.026248502 -0.060905255 0.050992761
-0.027868643 -0.060905255 0.050992761
-0.029488888 -0.060905255 0.050992765
-0.031109251 -0.060905255 0.050992765
-0.032778487 -0.059632368 0.049187075
-0.050211675 -0.043212648 0.025894603
-0.051802065 -0.044431273 0.027623309
-0.053463329 -0.044644505 0.027925787
-0.055123691 -0.044855006 0.02822442
-0.05678298 -0.045065306 0.028522745
-0.058441207 -0.045275368 0.028820723
-0.06009838 -0.045485321 0.029118555
-0.061754521 -0.045695096 0.029416142
-0.063389041 -0.046114173 0.030010615
-0.065042466 -0.046323422 0.030307464
-0.0666949 -0.046532512 0.030604053
-0.068346359 -0.046741411 0.030900408
-0.069996864 -0.046950083 0.031196406
-0.071646392 -0.047158666 0.031492319
-0.073270053 -0.047577772 0.032086842
-0.074917056 -0.047785778 0.032381903
-0.07656315 -0.047993667 0.032676823
-0.078208342 -0.048201401 0.032971483
-0.079852663 -0.048408877 0.033265807
-0.081496119 -0.048616178 0.033559885
-0.083138719 -0.048823338 0.033853766
-0.084751152 -0.049237177 0.03444083
-0.086391419 -0.049443856 0.034734014
-0.08803089 -0.049650323 0.035026904
-0.089669555 -0.049856652 0.035319593
-0.091307454 -0.050062709 0.035611879
-0.092944175 -0.050271228 0.035907689
-0.094547234 -0.050682668 0.036491338
-0.096388504 -0.049640186 0.03501251
0.020928571 -0.056501485 0.049211569
0.019284146 -0.056698974 0.049489919
0.017653441 -0.056708697 0.049503624
0.016188955 -0.054015812 0.04570809
0.014634668 -0.052565329 0.043663673
0.013071432 -0.051106311 0.041607223
0.011499152 -0.049638685 0.039538644
0.0099177454 -0.0481623 0.037457749
0.0083271116 -0.046677154 0.03536446
0.0067271558 -0.045183141 0.03325871
0.0051755686 -0.042165607 0.029005574
0.0035518764 -0.040647216 0.026865453
0.0019186196 -0.039116863 0.024708459
0.00027558501 -0.037577379 0.022538602
-0.0013773226 -0.036028441 0.020355437
-0.0030402075 -0.034470133 0.018159049
-0.004713174 -0.032902274 0.015949205
-0.0063726362 -0.029737625 0.011488728
-0.0080712363 -0.028140703 0.0092378967
-0.0097803026 -0.026533835 0.006973072
-0.011499946 -0.024916966 0.0046941387
-0.01323028 -0.023290118 0.0024011598
-0.050076596 -0.043202017 0.030466367
-0.051649142 -0.044580005 0.032408621
-0.053303938 -0.044789709 0.032704175
-0.054957651 -0.04499926 0.032999542
-0.05661029 -0.045208678 0.033294708
-0.058261879 -0.045417886 0.033589575
-0.059912432 -0.045626912 0.033884205
-0.06156195 -0.045835845 0.034178674
-0.063190036 -0.046253037 0.034766685
-0.064836875 -0.046461366 0.035060324
-0.06648273 -0.04666952 0.035353716
-0.068127625 -0.046877503 0.03564686
-0.069771551 -0.047085382 0.035939854
-0.071414538 -0.047293048 0.036232553
-0.073032148 -0.047707859 0.036817215
-0.074672624 -0.047914956 0.037109137
-0.076312222 -0.048121855 0.037400749
-0.07795091 -0.048328724 0.037692312
-0.079588398 -0.048537888 0.037987139
-0.081225365 -0.048744302 0.038278058
-0.082861476 -0.048950642 0.03856888
-0.084467664 -0.049362678 0.039149657
-0.08610148 -0.04956843 0.039439637
-0.087734498 -0.049774032 0.039729428
-0.089366719 -0.049979456 0.040018976
-0.090998173 -0.050184712 0.040308274
-0.092628866 -0.050389819 0.040597379
-0.094225779 -0.050799526 0.041174833
-0.096003711 -0.050097141 0.040184855
0.021043813 -0.053035811 0.048785906
0.019334791 -0.054107931 0.050287355
0.017683117 -0.054404594 0.050702807
0.016102083 -0.053582255 0.049551155
0.014524567 -0.052609086 0.048188295
0.012967014 -0.051155787 0.046153013
0.011400488 -0.049693946 0.044105791
0.0098249028 -0.048223477 0.042046465
0.0082401587 -0.046744291 0.039974947
0.006646168 -0.045256265 0.037891027
0.0051000644 -0.042253576 0.03368593
0.0034826216 -0.040738683 0.031564392
0.0018555787 -0.039214801 0.029430266
0.0002188426 -0.037681572 0.027283063
-0.0014276939 -0.036139145 0.025122974
-0.0030841266 -0.034587279 0.022949649
-0.0047505633 -0.033026066 0.02076325
-0.0064036055 -0.029874917 0.016350221
-0.0080954721 -0.028284801 0.014123349
-0.0097977202 -0.026684782 0.011882612
-0.011510463 -0.025075004 0.0096281962
-0.013233809 -0.023455217 0.0073597683
-0.01496787 -0.021825356 0.005077221
-0.016712759 -0.02018534 0.0027804701
-0.049920484 -0.043503523 0.035436418
-0.051497646 -0.044726886 0.037149679
-0.053145833 -0.044935651 0.03744204
-0.054792941 -0.045144383 0.037734348
-0.056438994 -0.045352861 0.038026322
-0.058084 -0.045561172 0.038318042
-0.059727974 -0.045769334 0.038609572
-0.061370939 -0.045977287 0.038900807
-0.06299264 -0.046392675 0.03948253
-0.064632937 -0.046600174 0.039773121
-0.066272259 -0.046807431 0.040063366
-0.067910634 -0.047014542 0.040353421
-0.069548048 -0.047221545 0.040643327
-0.071184538 -0.047428276 0.040932834
-0.072795853 -0.047841273 0.041511215
-0.074429862 -0.048047476 0.041799985
-0.07606297 -0.048253607 0.042088658
-0.077695198 -0.048459556 0.042377092
-0.079326577 -0.048665296 0.042665228
-0.0809571 -0.048870865 0.042953111
-0.082586803 -0.049076226 0.043240704
-0.084186457 -0.049489044 0.043818843
-0.085813858 -0.049693942 0.044105798
-0.087440468 -0.049898669 0.044392504
-0.089066297 -0.050103251 0.044679016
-0.09069135 -0.050307702 0.044965319
-0.092315674 -0.050511893 0.045251299
-0.093906492 -0.050919801 0.045822546
-0.095622525 -0.050551683 0.045307014
-0.097484276 -0.04933155 0.043598276
0.021145016 -0.049758147 0.048646387
0.019430693 -0.050842986 0.050155941
0.017775971 -0.051115263 0.050534829
0.016139878 -0.051115263 0.050534829
0.014514427 -0.05093462 0.050283466
0.012904988 -0.05044141 0.049597159
0.011292678 -0.04994471 0.048905991
0.0097327745 -0.048286051 0.046597958
0.0081538828 -0.046812683 0.044547763
0.0065658102 -0.045330651 0.042485498
0.0050252518 -0.042340145 0.038324192
0.0034139033 -0.040831488 0.036224909
0.0017930351 -0.039313793 0.034113001
0.00016254443 -0.03778692 0.03198836
-0.0014776702 -0.036250949 0.02985106
-0.0031277009 -0.034705512 0.027700558
-0.0047876579 -0.033150829 0.025537213
-0.0064343261 -0.030012956 0.02117084
-0.0081195123 -0.028429657 0.018967666
-0.009815 -0.026836593 0.016750909
-0.011520895 -0.025233727 0.014520518
-0.013237309 -0.023620958 0.012276346
-0.014964351 -0.021998178 0.010018243
-0.016702136 -0.020365357 0.0077461591
-0.018464381 -0.017069044 0.003159327
-0.049778722 -0.043620732 0.040106162
-0.051347371 -0.044874474 0.041850749
-0.052988991 -0.045082435 0.042140119
-0.054629557 -0.045290176 0.042429205
-0.056269072 -0.045497749 0.042718034
-0.057907552 -0.045705143 0.043006625
-0.059545007 -0.0459124 0.043295015
-0.06118146 -0.046119511 0.043583218
-0.062796816 -0.046533138 0.044158775
-0.064430632 -0.046739724 0.044446237
-0.066063471 -0.046946127 0.044733457
-0.067695379 -0.047152318 0.045020383
-0.069326341 -0.047358405 0.045307159
-0.070956379 -0.047564294 0.045593634
-0.07256145 -0.047975518 0.046165861
-0.074189022 -0.048180901 0.046451658
-0.075815715 -0.048386145 0.046737257
-0.077441543 -0.048591178 0.047022559
-0.079066515 -0.048796065 0.047307674
-0.080690652 -0.04900071 0.047592439
-0.08231362 -0.049207754 0.047880534
-0.083851323 -0.050016709 0.049006201
-0.085486405 -0.050113678 0.049141124
-0.08712177 -0.050208066 0.049272474
-0.088757075 -0.05030239 0.04940372
-0.090392314 -0.050396707 0.049534976
-0.092027143 -0.050493464 0.049669605
-0.093647249 -0.050681893 0.049931809
-0.095330738 -0.050478555 0.049648859
-0.097075485 -0.049919784 0.048871323
0.021246616 -0.046465982 0.048507798
0.019527316 -0.047558565 0.050018456
0.017869372 -0.047808517 0.05036404
0.016228333 -0.047810994 0.050367463
0.014587685 -0.04781099 0.050367463
0.012947253 -0.04781099 0.050367463
0.011308423 -0.047783542 0.050329503
0.0096919769 -0.047285832 0.049641371
0.008072597 -0.046784706 0.048948474
0.0064860689 -0.045406397 0.047042783
0.004951016 -0.042427968 0.042924698
0.0033457216 -0.04092538 0.040847164
0.0017309795 -0.039413881 0.038757302
0.00010668772 -0.037893318 0.036654919
-0.0015272498 -0.036363628 0.034539919
-0.0031709308 -0.03482471 0.032412145
-0.0048244568 -0.033276446 0.030271463
-0.0064648036 -0.030151902 0.025951358
-0.0081433626 -0.028575273 0.023771437
-0.0098321401 -0.026989046 0.021578273
-0.011531243 -0.025393136 0.019371696
-0.013240781 -0.023787308 0.01715143
-0.014960862 -0.02217162 0.01491751
-0.016691597 -0.020545913 0.012669754
-0.018446574 -0.017266942 0.0081361327
-0.020204466 -0.015610677 0.0058461041
-0.021973422 -0.013944034 0.003541756
-0.03456828 -0.048255239 0.050981693
-0.036162201 -0.049255591 0.05236483
-0.037754502 -0.050155543 0.05360914
-0.039295554 -0.051950503 0.056090906
-0.040873997 -0.052840728 0.057321765
-0.042446837 -0.05373013 0.058551501
-0.049638078 -0.043738835 0.044737164
-0.051198296 -0.045022756 0.046512347
-0.052833412 -0.045229789 0.046798598
-0.054467477 -0.045436677 0.047084659
-0.05610051 -0.045643322 0.047370374
-0.0577325 -0.045849938 0.047656033
-0.059363496 -0.046056256 0.047941316
-0.060953539 -0.046689387 0.048816707
-0.062582634 -0.046880007 0.04908026
-0.064220145 -0.046977755 0.049215417
-0.065857649 -0.047073029 0.049347147
-0.067494929 -0.047168236 0.049478773
-0.069132 -0.047263332 0.049610261
-0.07076858 -0.047360942 0.049745213
-0.072394162 -0.047551025 0.05000804
-0.07403034 -0.047646012 0.050139382
-0.075666346 -0.047741011 0.05027071
-0.077301875 -0.047838509 0.050405528
-0.07893759 -0.047933329 0.050536618
-0.080573171 -0.048028212 0.050667807
-0.082255974 -0.047775995 0.050319098
-0.083905734 -0.047775995 0.050319098
-0.085556023 -0.047775995 0.050319098
-0.087206855 -0.047775995 0.050319098
-0.088858247 -0.047775995 0.050319098
-0.090510204 -0.047775995 0.050319098
-0.092162758 -0.047775995 0.050319098
-0.093815908 -0.047775991 0.050319098
-0.095469244 -0.04777851 0.050322562
-0.097301669 -0.046706971 0.048841018
0.021348987 -0.04315405 0.048363093
0.019624326 -0.04425953 0.049881846
0.01796332 -0.044484131 0.050190404
0.016317455 -0.044486679 0.050193924
0.014671987 -0.044486679 0.050193924
0.013026735 -0.044486679 0.050193924
0.011381567 -0.044489104 0.050197233
0.0097367223 -0.044489104 0.050197233
0.0080919452 -0.044491652 0.050200753
0.0064629256 -0.044113092 0.049680658
0.0048773563 -0.042516831 0.047487665
0.0032780687 -0.041020397 0.045431793
0.0016694044 -0.039515052 0.043363679
5.1266848e-05 -0.038000714 0.041283224
-0.0015764429 -0.036477327 0.039190326
-0.0032138207 -0.034944784 0.03708484
-0.0048609702 -0.033403106 0.034966823
-0.0064950394 -0.030291565 0.030692045
-0.0081670228 -0.028721659 0.028535243
-0.0098491432 -0.027142195 0.026365323
-0.011541508 -0.025553081 0.024182126
-0.013244225 -0.023954166 0.021985464
-0.0149574 -0.022345517 0.019775439
-0.016681144 -0.020726932 0.01755175
-0.018428933 -0.017462375 0.013066766
-0.020179613 -0.015813528 0.01080152
-0.021941269 -0.014154249 0.0085219229
-0.023714017 -0.012484666 0.0062281853
-0.025497973 -0.010804577 0.0039200019
-0.029650284 -0.046541221 0.053016532
-0.031253375 -0.047539782 0.054388393
-0.032849841 -0.048544269 0.055768408
-0.034444086 -0.049445927 0.057007134
-0.036032837 -0.050341863 0.058238015
-0.037615936 -0.051236976 0.059467774
-0.039148618 -0.053015109 0.061910648
-0.040718004 -0.053900644 0.063127227
-0.042282112 -0.05478064 0.064336203
-0.043840725 -0.055659886 0.065544151
