# .PCD v0.7 - Point Cloud Data file format
VERSION 0.7
FIELDS x y z
SIZE 4 4 4
TYPE F F F
COUNT 1 1 1
WIDTH 619
HEIGHT 1
VIEWPOINT 0 0 0 1 0 0 0
POINTS 619
DATA ascii
0.14768974 -0.16732399 0.012091734
0.1459368 -0.16770783 0.012827988
0.14555302 -0.16482154 0.0072917449
0.15051906 -0.16995257 0.022459386
0.14910053 -0.16958724 0.021763794
0.14772905 -0.16910781 0.020850947
0.14653054 -0.1682137 0.019148562
0.14532687 -0.16731712 0.017441476
0.1445124 -0.16546841 0.013921519
0.14332859 -0.16448365 0.012046532
0.14208141 -0.16363758 0.010435616
0.14082411 -0.16280216 0.0088449717
0.13961169 -0.1618399 0.0070128166
0.13906966 -0.1591612 0.0019125621
0.15182853 -0.1687429 0.02543762
0.14989911 -0.16955921 0.026980521
0.14848757 -0.16918971 0.026282117
0.1471798 -0.16857222 0.025115017
0.14597891 -0.16769211 0.023451565
0.14477368 -0.16680793 0.021780452
0.14393882 -0.16501293 0.018387778
0.14272717 -0.16410552 0.016672727
0.14151029 -0.16319555 0.01495282
0.14030759 -0.16223447 0.013136332
0.13911232 -0.16123769 0.011252378
0.13820195 -0.15949745 0.0079632271
0.13696584 -0.1585618 0.0061947554
0.13572352 -0.1576253 0.0044247457
0.13447636 -0.15668429 0.0026461799
0.15552147 -0.16571528 0.024978176
0.15349893 -0.16671413 0.02685231
0.15185447 -0.16686815 0.027141258
0.15029652 -0.1668279 0.027065761
0.14874104 -0.16678415 0.026983671
0.14714347 -0.16684189 0.027091987
0.14572695 -0.16647233 0.026398608
0.14429797 -0.16612844 0.025753394
0.14339779 -0.1644951 0.022688789
0.14217813 -0.16361631 0.021039952
0.14096425 -0.1627083 0.019336293
0.1397472 -0.16179253 0.017618049
0.13852489 -0.16087414 0.015894927
0.13767733 -0.15898044 0.012341821
0.13647327 -0.15797165 0.010449058
0.13517891 -0.15718034 0.0089643514
0.13394691 -0.1562102 0.0071441126
0.13269946 -0.15526319 0.0053672646
0.16058822 -0.15968697 0.018953079
0.15728895 -0.16348679 0.02603076
0.15546988 -0.16401421 0.02701314
0.15386125 -0.1640743 0.027125083
0.15229973 -0.1640301 0.02704276
0.15075894 -0.16393994 0.026874814
0.14919986 -0.163894 0.026789257
0.14764173 -0.16384798 0.026703529
0.14608376 -0.16380379 0.026621196
0.14452742 -0.16375779 0.026535522
0.14309962 -0.16339992 0.025868969
0.14166677 -0.16305035 0.025217811
0.14044061 -0.16218153 0.023599541
0.13922147 -0.1612801 0.021920495
0.13798793 -0.16039968 0.020280613
0.13712449 -0.15855217 0.016839365
0.13589385 -0.15762269 0.015108108
0.13465852 -0.15668876 0.013368507
0.13343437 -0.15570796 0.011541652
0.13218243 -0.15478335 0.0098194359
0.13127728 -0.15290041 0.0063122171
0.13002038 -0.15194368 0.0045301635
0.1287578 -0.15098421 0.0027430106
0.15911043 -0.16114803 0.026880987
0.15745209 -0.16130333 0.027168155
0.1559017 -0.16121945 0.027013054
0.15433484 -0.16117483 0.026930552
0.15276971 -0.16112845 0.026844773
0.15122469 -0.16103733 0.026676269
0.14966129 -0.16099085 0.026590323
0.14809883 -0.16094433 0.026504321
0.1465365 -0.16089965 0.026421715
0.1449758 -0.16085324 0.026335871
0.14343423 -0.160762 0.026167158
0.14187512 -0.16071546 0.026081104
0.14031473 -0.1606743 0.026004998
0.13888338 -0.16030881 0.025329132
0.13744561 -0.15995523 0.024675317
0.13660374 -0.15805782 0.021166718
0.13536356 -0.15716319 0.019512402
0.1341327 -0.15622784 0.0177828
0.13289574 -0.15529162 0.016051553
0.13165396 -0.15435097 0.014312164
0.13077147 -0.15241306 0.010728669
0.12949733 -0.15151475 0.0090675671
0.12824552 -0.15053697 0.0072595193
0.12698258 -0.14957145 0.0054741153
0.12571326 -0.14860502 0.003687015
0.16318323 -0.15737453 0.025101978
0.16117997 -0.15826945 0.026744884
0.15952699 -0.15839925 0.026983192
0.15795456 -0.15835238 0.02689714
0.15638313 -0.15830553 0.026811138
0.15481189 -0.15826045 0.026728353
0.15324241 -0.1582135 0.026642194
0.15169311 -0.15812148 0.026473248
0.15012532 -0.15807454 0.026387079
0.14855769 -0.15802942 0.026304239
0.14699177 -0.15798244 0.026217964
0.14542672 -0.15793546 0.026131753
0.14388089 -0.15784328 0.025962533
0.1423174 -0.15779629 0.025876259
0.14075407 -0.15775108 0.025793262
0.13919228 -0.15770409 0.025706986
0.13763137 -0.15765701 0.025620544
0.13622899 -0.15720049 0.024782475
0.1347864 -0.1568429 0.024126006
0.13363335 -0.1557131 0.022051895
0.13238633 -0.15481377 0.020400845
0.13113612 -0.15390651 0.018735286
0.13024062 -0.1520106 0.015254767
0.1289902 -0.1510586 0.013507021
0.12773553 -0.15010013 0.011747442
0.12647659 -0.14913505 0.0099757463
0.12521127 -0.14816913 0.0082024699
0.12394085 -0.14719853 0.0064206277
0.16801308 -0.15202445 0.020491827
0.16497695 -0.15513216 0.026156059
0.16318981 -0.15553857 0.026896801
0.16157737 -0.15556589 0.026946608
0.16001995 -0.15547304 0.026777389
0.15844314 -0.15542565 0.026691008
0.15686651 -0.15538014 0.026608054
0.15529168 -0.15533271 0.026521619
0.15371777 -0.15528534 0.026435293
0.15216418 -0.15519235 0.0262658
0.150592 -0.15514494 0.026179357
0.14901996 -0.15509936 0.026096296
0.14744964 -0.15505187 0.026009757
0.14587948 -0.15500621 0.025926528
0.14433008 -0.15491125 0.025753442
0.14276148 -0.15486559 0.025670223
0.14119451 -0.15481807 0.025583621
0.13962834 -0.15477057 0.025497021
0.13806228 -0.1547249 0.025413802
0.13651602 -0.15462981 0.025240494
0.13495144 -0.15458409 0.025157159
0.13342616 -0.15443583 0.024886914
0.13197988 -0.15407477 0.024228854
0.13065504 -0.1533784 0.02295959
0.12973796 -0.15154751 0.019622518
0.12847929 -0.15062948 0.017949278
0.12722987 -0.14966778 0.016196463
0.12597287 -0.14870889 0.01444876
0.12471085 -0.14774545 0.012692732
0.12344515 -0.14677344 0.010921131
0.12250542 -0.144821 0.0073625352
0.16877294 -0.15204695 0.025686931
0.16689141 -0.15263638 0.026753543
0.1652447 -0.15272281 0.02690996
0.1636606 -0.15267493 0.026823306
0.16207744 -0.15262721 0.02673699
0.16051574 -0.15253335 0.026567105
0.1589345 -0.15248547 0.026480451
0.15735343 -0.15243948 0.026397223
0.15577416 -0.15239158 0.02631058
0.15419504 -0.1523456 0.026227349
0.15263794 -0.15224974 0.026053885
0.15106057 -0.15220365 0.025970496
0.14948489 -0.15215577 0.025883842
0.14791013 -0.15210783 0.025797084
0.14633553 -0.15206172 0.025713643
0.14478184 -0.15196577 0.02554002
0.14320882 -0.15191963 0.025456516
0.14163741 -0.15187162 0.025369652
0.14006683 -0.15182362 0.025282787
0.1384964 -0.15177743 0.025199167
0.1369458 -0.15168141 0.025025439
0.13537683 -0.15163514 0.024941724
0.13380933 -0.15158711 0.024854796
0.13224193 -0.15154089 0.024771135
0.13064219 -0.15158522 0.024851384
0.12929644 -0.15093145 0.02366831
0.12800929 -0.15010242 0.022168061
0.12674831 -0.14918378 0.020505704
0.12548327 -0.14825894 0.018832106
0.12421276 -0.14733173 0.01715423
0.12295232 -0.14635661 0.015389635
0.12201362 -0.14440912 0.011865452
0.12073811 -0.14342739 0.01008892
0.17098328 -0.14893763 0.025198184
0.16893008 -0.14988288 0.026896546
0.16734959 -0.14981236 0.02676983
0.16575827 -0.14976774 0.026689678
0.16416883 -0.14972131 0.026606228
0.16258124 -0.14967304 0.026519531
0.16101518 -0.14957823 0.026349163
0.15942864 -0.14953172 0.026265608
0.15784393 -0.14948337 0.026178744
0.1562594 -0.14943686 0.026095187
0.15467586 -0.14939034 0.026011568
0.15311439 -0.14929356 0.02583768
0.15153258 -0.14924698 0.02575402
0.14995247 -0.14919855 0.025666997
0.14837326 -0.1491501 0.025579974
0.14679421 -0.14910351 0.025496248
0.14523619 -0.14900659 0.025322087
0.14365871 -0.14896001 0.025238426
0.14208287 -0.14891149 0.025151234
0.14050712 -0.1488649 0.02506751
0.13893294 -0.14881636 0.024980329
0.13737734 -0.14872116 0.024809256
0.13580464 -0.14867257 0.02472196
0.13423271 -0.14862399 0.024634663
0.13266087 -0.14857732 0.024550842
0.13109052 -0.14852868 0.02446343
0.1295377 -0.1484334 0.024292251
0.12795468 -0.14842403 0.024275413
0.12647349 -0.14812833 0.02374411
0.12501274 -0.14777035 0.023100939
0.12375843 -0.1468074 0.021370789
0.12248299 -0.14588721 0.019717485
0.12152208 -0.14401309 0.016350225
0.12025259 -0.14302614 0.014576969
0.11897538 -0.14204216 0.012809024
0.1729109 -0.14645143 0.025845096
0.17087418 -0.14734806 0.027444653
0.16920315 -0.1474659 0.027654883
0.16760932 -0.14741911 0.027571432
0.16601659 -0.14737231 0.027487917
0.16442488 -0.14732556 0.027404519
0.16283424 -0.14727874 0.027321016
0.16126597 -0.14718328 0.0271507
0.15967719 -0.14713643 0.027067145
0.15809025 -0.14708771 0.026980238
0.15650347 -0.14704087 0.026896672
0.15491848 -0.14699213 0.026809702
0.15335405 -0.14689648 0.02663907
0.15176998 -0.14684959 0.026555398
0.15018685 -0.14680268 0.026471736
0.14860542 -0.14675391 0.026384713
0.14702491 -0.14670506 0.026297586
0.14546394 -0.14660932 0.026126796
0.14388499 -0.14656048 0.026039669
0.14230618 -0.14651348 0.025955839
0.14072895 -0.14646459 0.025868595
0.13915254 -0.14641573 0.025781414
0.13759474 -0.14631979 0.025610298
0.13601911 -0.14627273 0.025526362
0.13444495 -0.14622381 0.025439065
0.13287157 -0.14617495 0.025351886
0.13129832 -0.14612779 0.025267791
0.12974401 -0.1460299 0.025093157
0.12817208 -0.14598277 0.025009053
0.12660153 -0.14593375 0.024921609
0.12507024 -0.14577352 0.024635758
0.12358671 -0.14547336 0.024100304
0.12225787 -0.14471252 0.022743005
0.12129623 -0.14283982 0.01940215
0.1200143 -0.14189401 0.017714875
0.11873626 -0.14091671 0.015971428
0.11745306 -0.13993475 0.014219658
0.17773373 -0.14129376 0.021768039
0.1746345 -0.1444125 0.027292365
0.17293371 -0.14457686 0.027583515
0.17130876 -0.14458255 0.0275936
0.16973017 -0.14448999 0.027429648
0.1681318 -0.14444278 0.027346028
0.16653454 -0.14439549 0.027262252
0.16493833 -0.14434825 0.02717858
0.16334319 -0.14430091 0.027094686
0.16176972 -0.14420633 0.026927184
0.16017725 -0.14415711 0.026840014
0.15858498 -0.1441098 0.026756173
0.15699452 -0.14406055 0.026668951
0.15540422 -0.14401318 0.026585069
0.1538354 -0.14391659 0.026413951
0.15224762 -0.14386728 0.026326614
0.15066001 -0.1438199 0.026242668
0.14907332 -0.14377247 0.026158679
0.14748831 -0.14372315 0.026071288
0.14592296 -0.14362641 0.025899962
0.14433876 -0.14357899 0.025815962
0.14275622 -0.14352961 0.025728466
0.14117377 -0.14348212 0.025644362
0.1395929 -0.14343269 0.025556812
0.13803074 -0.14333579 0.025385158
0.1364506 -0.14328828 0.025301002
0.13487197 -0.14323886 0.025213452
0.13329415 -0.14318939 0.02512585
0.13171639 -0.14314185 0.025041642
0.13015772 -0.14304291 0.024866374
0.1285813 -0.14299534 0.024782112
0.12700628 -0.14294583 0.024694394
0.12543134 -0.14289822 0.024610078
0.12385776 -0.14284867 0.024522308
0.12225596 -0.14288487 0.024586424
0.12086905 -0.14228013 0.02351523
0.1195687 -0.14140128 0.021958504
0.11828443 -0.14045501 0.020282313
0.11699518 -0.13950431 0.018598326
0.17861128 -0.14106418 0.026433496
0.17671075 -0.14163169 0.027431659
0.17505422 -0.14168894 0.027532369
0.1734482 -0.1416412 0.027448371
0.17184325 -0.14159353 0.027364541
0.17026025 -0.14149997 0.027199989
0.16865733 -0.14145225 0.027116043
0.16705553 -0.14140449 0.027032044
0.1654548 -0.14135671 0.026948003
0.16385508 -0.14130898 0.026864057
0.16227719 -0.14121339 0.026695902
0.16067936 -0.14116558 0.026611861
0.1590834 -0.14111586 0.026524365
0.15748757 -0.14106804 0.026440261
0.15589277 -0.14102016 0.026356051
0.15431954 -0.14092256 0.026184408
0.15272725 -0.14087276 0.026096817
0.1511351 -0.14082485 0.026012555
0.14954467 -0.14077505 0.025924953
0.14795436 -0.14072715 0.02584069
0.14638463 -0.14062941 0.025668774
0.14479665 -0.14057957 0.025581129
0.14320888 -0.14053154 0.025496647
0.1416226 -0.1404817 0.025409002
0.14003651 -0.1404337 0.025324572
0.13846993 -0.14033581 0.025152391
0.13688602 -0.14028585 0.025064526
0.13530217 -0.14023782 0.024980053
0.13371983 -0.14018786 0.024892187
0.13213755 -0.14013986 0.024807757
0.13057384 -0.14004172 0.024635144
0.12899292 -0.1399937 0.024550671
0.12741339 -0.1399437 0.024462754
0.12583396 -0.13989556 0.024378059
0.12425587 -0.13984555 0.024290077
0.12267848 -0.1397955 0.024202054
0.12111775 -0.1396973 0.024029337
0.1195308 -0.13967994 0.023998812
0.11803842 -0.13937339 0.023459638
0.11654419 -0.13906829 0.022922993
0.1159076 -0.13604538 0.017606134
0.18089107 -0.13788334 0.025896311
0.17879932 -0.13883881 0.027565064
0.17721276 -0.1387348 0.0273834
0.17560098 -0.13868664 0.027299307
0.17399034 -0.1386385 0.027215203
0.17238085 -0.13859025 0.027130941
0.17079426 -0.13849385 0.026962575
0.16918591 -0.13844754 0.026881684
0.16757953 -0.13839929 0.026797421
0.16597421 -0.13835104 0.026713161
0.16436993 -0.13830279 0.026628898
0.1627876 -0.13820621 0.026460206
0.1611852 -0.13815796 0.026375944
0.15958385 -0.13810962 0.026291523
0.1579835 -0.13806129 0.026207102
0.15638492 -0.13801104 0.026119353
0.15480728 -0.13791236 0.025947025
0.15320963 -0.13786404 0.025862595
0.15161373 -0.1378137 0.025774688
0.15001798 -0.13776526 0.025690109
0.1484239 -0.13771492 0.025602201
0.14684972 -0.1376162 0.025429757
0.14525647 -0.13756774 0.025345117
0.14366485 -0.13751738 0.025257155
0.14207333 -0.13746892 0.025172515
0.14048341 -0.13741849 0.025084449
0.13891241 -0.13731956 0.024911689
0.13732322 -0.13727108 0.024826996
0.13573484 -0.13722257 0.024742311
0.13414799 -0.13717207 0.024654077
0.13256119 -0.13712351 0.024569279
0.13099302 -0.13702443 0.024396254
0.12940826 -0.13697392 0.02430802
0.12782353 -0.13692534 0.024223167
0.12624021 -0.13687482 0.024134934
0.12465694 -0.13682625 0.024050081
0.12307503 -0.13677563 0.0239617
0.12150986 -0.13667643 0.023788456
0.1199285 -0.13662773 0.023703381
0.11834843 -0.13657711 0.02361499
0.11681863 -0.13637058 0.023254307
0.11531229 -0.13608778 0.022760358
0.18314175 -0.13478026 0.025518905
0.18097955 -0.13586649 0.027402755
0.17938574 -0.13576534 0.02722734
0.17776728 -0.13571864 0.027146334
0.17615089 -0.13566999 0.027061965
0.17453569 -0.13562125 0.02697744
0.17292155 -0.13557261 0.026893074
0.17133048 -0.13547522 0.026724169
0.16971841 -0.13542645 0.026639592
0.16810656 -0.13537969 0.026558479
0.16649665 -0.13533092 0.026473902
0.16488777 -0.1352822 0.026389429
0.16330096 -0.13518463 0.02622021
0.16169399 -0.13513583 0.026135579
0.16008806 -0.135087 0.026050884
0.15848312 -0.13503817 0.025966201
0.15687916 -0.13498934 0.025881507
0.15529704 -0.13488969 0.025708705
0.15369563 -0.13483886 0.025620544
0.15209433 -0.13479003 0.02553585
0.1504948 -0.13473913 0.025447585
0.14889537 -0.13469024 0.025362786
0.14731677 -0.13459042 0.025189668
0.14571968 -0.13453957 0.025101507
0.14412275 -0.13449062 0.025016602
0.1425274 -0.13443969 0.024928272
0.14093219 -0.13439071 0.024843315
0.13935672 -0.1342908 0.024670038
0.13776296 -0.1342418 0.024585081
0.13617076 -0.13419078 0.024496594
0.13457863 -0.13414174 0.024411531
0.13298798 -0.13409071 0.024323056
0.13141534 -0.13399065 0.024149505
0.12982532 -0.13394156 0.02406439
0.12823671 -0.13389054 0.023975901
0.12664819 -0.1338414 0.023890682
0.12506104 -0.13379034 0.023802141
0.12347391 -0.13374121 0.02371691
0.12190428 -0.13364099 0.023543097
0.120319 -0.13358982 0.023454346
0.11887216 -0.13310939 0.022621144
0.17994812 -0.13273509 0.026986152
0.17832594 -0.13268594 0.026901523
0.17670402 -0.13263874 0.026820188
0.17508417 -0.13258952 0.026735453
0.1734654 -0.13254037 0.026650822
0.17186986 -0.13244195 0.026481288
0.17025314 -0.1323927 0.026396498
0.16863753 -0.13234347 0.026311709
0.16702215 -0.13229616 0.026230218
0.16540866 -0.13224693 0.026145428
0.16381735 -0.13214837 0.025975684
0.16220576 -0.13209906 0.025890788
0.16059519 -0.13204977 0.025805883
0.15898563 -0.13200043 0.025720937
0.15737706 -0.13195111 0.02563598
0.15579046 -0.13185042 0.025462557
0.15418364 -0.13180105 0.025377557
0.15257777 -0.13175167 0.025292493
0.15097362 -0.13170029 0.025204027
0.1493696 -0.13165091 0.025118964
0.1477865 -0.13155007 0.02494533
0.14618483 -0.13149868 0.0248568
0.14458331 -0.13144922 0.024771644
0.14298339 -0.13139775 0.024683008
0.14138356 -0.13134831 0.02459784
0.13980362 -0.13124736 0.024423996
0.13820605 -0.13119577 0.02433515
0.1366085 -0.13114628 0.024249928
0.13501248 -0.13109477 0.024161188
0.13341653 -0.13104525 0.024075914
0.13183944 -0.13094409 0.02390169
0.13024552 -0.13089253 0.023812898
0.12865165 -0.13084292 0.023727465
0.12705919 -0.13079137 0.023638684
0.12546681 -0.13074173 0.023553189
0.12387575 -0.13069011 0.02346429
0.12242921 -0.13019903 0.022618562
0.17766991 -0.12869863 0.025044836
0.17563584 -0.12954313 0.026489094
0.17401245 -0.12949342 0.026404094
0.17241235 -0.12939401 0.026234094
0.170791 -0.12934425 0.02614899
0.16917074 -0.12929451 0.026063938
0.16755155 -0.12924474 0.025978832
0.16593254 -0.12919702 0.025897183
0.16433673 -0.1290974 0.025726805
0.16272049 -0.1290476 0.025641646
0.16110529 -0.12899777 0.025556436
0.15949109 -0.12894794 0.025471225
0.15787788 -0.12889813 0.025386006
0.15628596 -0.12879841 0.025215479
0.1546745 -0.12874852 0.025130153
0.1530648 -0.12869664 0.025041435
0.15145525 -0.12864669 0.024956012
0.14984737 -0.12859482 0.024867283
0.14825977 -0.12849292 0.024693027
0.14665271 -0.128443 0.024607658
0.14504732 -0.12839107 0.024518823
0.14344202 -0.12834108 0.02443335
0.14183834 -0.12828907 0.024344411
0.1402539 -0.12818706 0.024169942
0.13865094 -0.12813705 0.024084417
0.13704951 -0.12808502 0.023995424
0.13544816 -0.12803498 0.023909833
0.13384831 -0.1279829 0.023820799
0.132266 -0.12788273 0.023649462
0.13066749 -0.12783064 0.023560364
0.129069 -0.12778053 0.023474678
0.12747195 -0.12772843 0.023385581
0.12587494 -0.1276783 0.023299832
0.12439445 -0.12727679 0.022613186
0.17295805 -0.12633109 0.025982423
0.17133199 -0.12628089 0.02589716
0.16970704 -0.12623066 0.025811855
0.16808319 -0.12618037 0.025726434
0.16646039 -0.12613003 0.025640961
0.16485915 -0.1260315 0.025473626
0.16323824 -0.12598115 0.025388101
0.16161837 -0.12593086 0.02530268
0.15999949 -0.12588054 0.025217205
0.15838163 -0.12583014 0.025131626
0.15678433 -0.12573147 0.024964031
0.15516905 -0.12567902 0.024874954
0.15355389 -0.12562862 0.024789374
0.15194046 -0.12557617 0.024700297
0.15032716 -0.12552579 0.024614718
0.14873502 -0.12542285 0.024439903
0.14712411 -0.12537035 0.02435071
0.1455133 -0.12531991 0.024265088
0.1439041 -0.12526739 0.024175843
0.14229502 -0.1252169 0.024090106
0.14070605 -0.12511382 0.023915028
0.13909845 -0.1250633 0.023829237
0.1374924 -0.1250107 0.023739886
0.13588639 -0.12496018 0.023654096
0.13428192 -0.12490755 0.023564704
0.13269576 -0.12480433 0.023389414
0.13109192 -0.1247537 0.023303403
0.1294895 -0.12470105 0.023214011
0.12799062 -0.12434231 0.022604724
0.16861795 -0.12310089 0.025469642
0.16699044 -0.12305009 0.02538397
0.16538465 -0.12295045 0.025215898
0.16375904 -0.12289965 0.025130223
0.16213448 -0.12284876 0.025044393
0.16051091 -0.12279793 0.024958666
0.15888834 -0.12274706 0.024872886
0.1572873 -0.12264529 0.024701212
0.15566567 -0.12259647 0.024618877
0.15404665 -0.12254345 0.024529442
0.15242775 -0.12249252 0.024443557
0.15081058 -0.1224395 0.024354123
0.14921309 -0.1223376 0.024182238
0.14759749 -0.12228457 0.024092812
0.14598201 -0.12223359 0.024006812
0.14436814 -0.12218056 0.023917386
0.14275438 -0.12212958 0.023831386
0.14116086 -0.12202545 0.02365575
0.13954933 -0.12197233 0.023566155
0.13793787 -0.12192125 0.023480007
0.13632795 -0.1218681 0.023390362
0.13471808 -0.12181702 0.023304213
0.13312736 -0.12171276 0.023128366
0.13160916 -0.12139761 0.02259679
0.1659141 -0.11985208 0.024950435
0.16428289 -0.11980283 0.024867933
0.1626536 -0.11975147 0.0247819
0.16102533 -0.11970007 0.024695816
0.15939805 -0.11964868 0.02460972
0.15779242 -0.11954582 0.024437444
0.15616688 -0.11949444 0.024351349
0.15454149 -0.11944508 0.0242687
0.15291791 -0.1193936 0.024182446
0.15129602 -0.11934006 0.024092767
0.14969474 -0.119235 0.023916794
0.14807366 -0.11918352 0.02383054
0.14645424 -0.11912998 0.023740863
0.14483491 -0.11907849 0.023654621
0.14321724 -0.11902483 0.023564732
0.14161912 -0.1189196 0.023388496
0.14000215 -0.11886803 0.023302084
0.13838671 -0.11881439 0.023212247
0.13677135 -0.11876281 0.023125846
0.13515753 -0.11870908 0.023035852
0.13375172 -0.11805347 0.021937653
0.16154279 -0.11658671 0.024428573
0.15991074 -0.11653482 0.024342224
0.1583005 -0.11643092 0.024169389
0.15667023 -0.11637899 0.024082989
0.15504092 -0.116327 0.023996493
0.15341178 -0.11627705 0.023913421
0.15178436 -0.11622506 0.023826916
0.15017843 -0.11611901 0.023650499
0.14855343 -0.11606486 0.023560422
0.14692852 -0.11601283 0.023473872
0.14530522 -0.11595871 0.023383847
0.14368205 -0.11590663 0.023297183
0.14207931 -0.11580036 0.023120398
0.14045836 -0.11574618 0.023030266
0.13883747 -0.11569405 0.02294356
0.13727957 -0.11546452 0.02256171
0.13577552 -0.11507805 0.02191879
0.1603236 -0.11366114 0.024493044
0.15855525 -0.11394388 0.024960179
0.15692261 -0.11389154 0.024873694
0.15529093 -0.11383919 0.02478721
0.15366018 -0.11378688 0.024700776
0.15203039 -0.11373447 0.024614185
0.15042138 -0.11362968 0.024441058
0.14879398 -0.11357518 0.024351001
0.1471667 -0.11352273 0.024264356
0.14554101 -0.11346829 0.024174405
0.14391547 -0.11341579 0.024087656
0.14231044 -0.11330871 0.023910744
0.14068711 -0.11325417 0.023820635
0.1391187 -0.11304619 0.023477001
0.13761318 -0.11265694 0.022833904
0.15758844 -0.11034896 0.023940109
0.15579398 -0.11069826 0.024513317
0.15415846 -0.11064538 0.024426525
0.15252388 -0.11059246 0.024339681
0.1509102 -0.11048662 0.024166005
0.14927723 -0.1104337 0.024079172
0.14764597 -0.11037858 0.023988714
0.14601475 -0.11032562 0.023901829
0.1443852 -0.11027054 0.023811424
0.14277548 -0.11016243 0.023634028
0.14130497 -0.10966342 0.022815188
0.15317963 -0.10701504 0.023377215
0.15140192 -0.10732759 0.023886614
0.14976417 -0.10727405 0.02379938
0.1481273 -0.10722055 0.023712188
0.14649206 -0.10716494 0.023621552
0.14485694 -0.10711142 0.023534307
0.15041606 -0.10366117 0.022807715
0.1486115 -0.10404639 0.02343132
0.14710198 -0.10363088 0.022758689
