# .PCD v0.7 - Point Cloud Data file format
VERSION 0.7
FIELDS x y z
SIZE 4 4 4
TYPE F F F
COUNT 1 1 1
WIDTH 553
HEIGHT 1
VIEWPOINT 0 0 0 1 0 0 0
POINTS 553
DATA ascii
-0.13342133 -0.044594828 0.004379306
-0.13446663 -0.04747374 0.0085976692
-0.13545848 -0.050493769 0.013022795
-0.13649821 -0.053239919 0.017046608
-0.13780254 -0.054860625 0.019421343
-0.13966681 -0.054241836 0.018514669
-0.1415374 -0.053618979 0.01760203
-0.14341304 -0.052997123 0.016690837
-0.14577569 -0.050557677 0.013116435
-0.14788884 -0.049114376 0.011001611
-0.13206214 -0.041025084 0.0039606076
-0.1331183 -0.043931067 0.0081910146
-0.13415153 -0.04685301 0.012444654
-0.13517562 -0.049733631 0.01663813
-0.13621324 -0.05248272 0.020640122
-0.13712484 -0.055663507 0.025270578
-0.13892734 -0.055249006 0.024667149
-0.14074473 -0.054791447 0.024001071
-0.1425672 -0.054330364 0.023329841
-0.1443934 -0.053870995 0.022661107
-0.14622398 -0.053410802 0.021991173
-0.14827804 -0.052141394 0.020143233
-0.15016463 -0.051518083 0.019235853
-0.15205771 -0.050890833 0.018322721
-0.15397747 -0.05018796 0.017299511
-0.15589502 -0.049513813 0.016318131
-0.15894748 -0.044922747 0.0096346615
-0.13068715 -0.037469219 0.0035872059
-0.1317616 -0.040370479 0.0077833897
-0.13282357 -0.043244135 0.011939661
-0.13385104 -0.046183527 0.016191024
-0.13489597 -0.048971392 0.020223195
-0.1359321 -0.051720966 0.024200004
-0.13675526 -0.055253059 0.029308602
-0.13852747 -0.054936707 0.028851056
-0.14030288 -0.054620016 0.028393004
-0.14208159 -0.054302871 0.027934311
-0.14386356 -0.053985421 0.027475161
-0.14564882 -0.053667486 0.027015319
-0.14753298 -0.052995149 0.026042918
-0.14941221 -0.052361451 0.025126372
-0.15124917 -0.051900204 0.02445926
-0.15309064 -0.051438004 0.023790747
-0.15493731 -0.050972555 0.023117557
-0.15690306 -0.050107438 0.021866312
-0.15875387 -0.049662281 0.021222476
-0.16073519 -0.048787586 0.019957375
-0.1626507 -0.048158303 0.019047203
-0.16459927 -0.047437593 0.018004827
-0.16654055 -0.046761107 0.017026378
-0.16930619 -0.04342689 0.012203997
-0.17176983 -0.041140731 0.0088974386
-0.13038795 -0.036829162 0.0074285646
-0.13145892 -0.03973721 0.011607425
-0.13251804 -0.042614963 0.01574274
-0.13357291 -0.045431793 0.019790534
-0.13461694 -0.048217468 0.023793537
-0.13563618 -0.051030431 0.027835758
-0.13658182 -0.054066077 0.032197978
-0.13828929 -0.053996239 0.032097626
-0.14004968 -0.053724509 0.031707149
-0.14181368 -0.053449869 0.031312495
-0.14357994 -0.053177517 0.03092112
-0.14534318 -0.052927408 0.030561702
-0.14721578 -0.052280758 0.029632481
-0.14900526 -0.051959358 0.029170625
-0.15079744 -0.051640064 0.028711803
-0.15259302 -0.051320285 0.028252287
-0.15439129 -0.051002625 0.027795793
-0.15629558 -0.050325714 0.026823075
-0.15810715 -0.049989119 0.02633941
-0.15992153 -0.049654577 0.025858661
-0.16183443 -0.048999321 0.024917059
-0.16369621 -0.048533577 0.024247788
-0.1655626 -0.048067003 0.023577325
-0.16755462 -0.047205321 0.022339083
-0.16942486 -0.046759292 0.021698145
-0.17130046 -0.046309877 0.021052329
-0.17332129 -0.045416333 0.019768314
-0.17529829 -0.044682663 0.018714031
-0.17748693 -0.043315664 0.016749661
-0.1794638 -0.042627964 0.015761433
-0.18236941 -0.039153483 0.010768612
-0.12966458 -0.030323368 0.0028656702
-0.13009815 -0.036159869 0.011198685
-0.13117661 -0.039027613 0.015293093
-0.13224149 -0.041873768 0.019356662
-0.13329543 -0.044688292 0.02337507
-0.13434045 -0.047463953 0.027338013
-0.13539028 -0.050146114 0.031167457
-0.13644713 -0.052729812 0.034856308
-0.13812077 -0.052787174 0.034938198
-0.13986346 -0.052575059 0.034635365
-0.14160864 -0.052362744 0.034332223
-0.14338048 -0.052057579 0.033896528
-0.14514752 -0.051782202 0.033503372
-0.14699014 -0.05123559 0.03272295
-0.14876418 -0.050959285 0.032328445
-0.15054056 -0.05068516 0.03193707
-0.15231997 -0.050410766 0.031545293
-0.15409534 -0.050161254 0.031189067
-0.15595055 -0.049641341 0.030446768
-0.15773562 -0.049380895 0.030074926
-0.15956651 -0.048973378 0.02949309
-0.16137607 -0.048651375 0.029033352
-0.16318913 -0.048329059 0.02857317
-0.16501184 -0.047985952 0.028083287
-0.16693948 -0.047311045 0.027119694
-0.16876854 -0.046974111 0.026638642
-0.17060205 -0.046634186 0.02615333
-0.17243846 -0.046296421 0.025671087
-0.17438678 -0.045619503 0.024704617
-0.17640401 -0.044747557 0.023459693
-0.17829128 -0.04429625 0.022815352
-0.18018323 -0.043844149 0.022169862
-0.18207903 -0.04339378 0.02152686
-0.129527 -0.028979471 0.0057039228
-0.12996224 -0.034821495 0.013991208
-0.13103899 -0.03769869 0.018072709
-0.1321034 -0.040548988 0.022116037
-0.13315748 -0.043365017 0.02611077
-0.13419901 -0.046157517 0.030072132
-0.13526741 -0.048765235 0.033771351
-0.13634723 -0.051258538 0.037308253
-0.13808699 -0.051045895 0.037006617
-0.13982856 -0.050835531 0.036708187
-0.14157324 -0.050622541 0.036406059
-0.14332041 -0.050409276 0.036103528
-0.14506941 -0.050198387 0.035804357
-0.14687863 -0.049771089 0.035198212
-0.14865994 -0.049461491 0.034759033
-0.15043561 -0.049184162 0.034365632
-0.15221357 -0.048909221 0.033975586
-0.15399459 -0.048633914 0.033585053
-0.15585773 -0.048079822 0.032799046
-0.15763791 -0.047831494 0.032446783
-0.15942468 -0.047570139 0.032076016
-0.16121444 -0.047308598 0.031705018
-0.16300726 -0.047046717 0.031333514
-0.16480307 -0.046784662 0.030961769
-0.16674723 -0.046045151 0.029912734
-0.16857697 -0.04569767 0.029419806
-0.17040725 -0.045359951 0.028940722
-0.17224211 -0.045019057 0.028457141
-0.17407981 -0.044680428 0.027976772
-0.17603132 -0.043999124 0.027010301
-0.17787786 -0.043659061 0.02652791
-0.17982836 -0.043013699 0.025612406
-0.18172063 -0.042561032 0.024970267
-0.12815119 -0.025286881 0.0052155447
-0.12925409 -0.028252501 0.0093955016
-0.12969077 -0.0340917 0.017625678
-0.13076472 -0.036974195 0.021688476
-0.13182938 -0.039816674 0.025694862
-0.13287708 -0.04265349 0.029693251
-0.13394877 -0.045313314 0.033442192
-0.13477893 -0.048900325 0.038497984
-0.13632321 -0.049483132 0.039319426
-0.13805199 -0.04931248 0.039078895
-0.13978292 -0.049141649 0.038838118
-0.14151601 -0.04897071 0.038597196
-0.14325194 -0.04879719 0.03835262
-0.14499733 -0.048595782 0.038068749
-0.14680482 -0.048169814 0.037468359
-0.14855929 -0.04795533 0.037166037
-0.15031631 -0.047740698 0.036863528
-0.15207523 -0.047528308 0.036564171
-0.1538374 -0.047313295 0.036261115
-0.15566313 -0.046882566 0.03565402
-0.1574306 -0.046669513 0.035353724
-0.15920143 -0.046453688 0.035049539
-0.16100471 -0.04613607 0.034601856
-0.16279939 -0.045858681 0.034210879
-0.16459794 -0.045578491 0.033815965
-0.16647401 -0.04505292 0.033075191
-0.16827443 -0.044789702 0.032704182
-0.17007791 -0.044526231 0.032332838
-0.17188454 -0.044262413 0.031960998
-0.17369425 -0.043998424 0.031588905
-0.17559193 -0.043469526 0.030843452
-0.1774707 -0.043014139 0.030201588
-0.17931616 -0.042674024 0.029722199
-0.18116623 -0.042330928 0.029238626
-0.1835776 -0.040319473 0.026403533
-0.1278806 -0.024568349 0.0089186616
-0.12898245 -0.027530955 0.013067662
-0.12941936 -0.033372644 0.021248652
-0.13049354 -0.03624716 0.025274247
-0.13155726 -0.039087035 0.029251372
-0.13261071 -0.041893076 0.033181071
-0.13366261 -0.044629999 0.037014
-0.1348484 -0.046739161 0.039967768
-0.13635339 -0.047488742 0.041017521
-0.13806824 -0.047375284 0.040858626
-0.13979751 -0.047211364 0.040629067
-0.1415308 -0.047039784 0.040388785
-0.14326628 -0.046868067 0.040148307
-0.14500393 -0.046696246 0.039907679
-0.14678939 -0.046352219 0.039425876
-0.14853278 -0.04617748 0.039181173
-0.15027776 -0.04600513 0.038939808
-0.15202497 -0.045832749 0.03869839
-0.1537745 -0.045660116 0.038456637
-0.15558428 -0.045281678 0.03792664
-0.15735148 -0.045065466 0.037623856
-0.15912127 -0.044849116 0.037320875
-0.16089301 -0.044635084 0.037021138
-0.16266814 -0.044418462 0.036717754
-0.16444598 -0.044201478 0.036413886
-0.16629143 -0.043769557 0.035808992
-0.16807546 -0.043552183 0.035504587
-0.16986229 -0.043334402 0.035199583
-0.17165105 -0.043119177 0.034898169
-0.17347744 -0.0427933 0.034441803
-0.1753715 -0.042266421 0.033703938
-0.17718597 -0.042001266 0.033332594
-0.17900361 -0.041735854 0.03296091
-0.18082449 -0.04147014 0.032588772
-0.18294157 -0.0403242 0.030983958
-0.12649886 -0.020861523 0.0084365951
-0.12761132 -0.023855098 0.012602169
-0.1287121 -0.026814763 0.016720561
-0.12914982 -0.03265623 0.024849005
-0.13022299 -0.035528135 0.028845264
-0.13128816 -0.038355026 0.032778893
-0.13233949 -0.041163798 0.036687318
-0.13325305 -0.044478435 0.041299663
-0.13478503 -0.045130573 0.042207126
-0.13645886 -0.045186333 0.04228472
-0.1381771 -0.045064665 0.042115405
-0.13989712 -0.044942923 0.041945994
-0.14161959 -0.044818643 0.041773055
-0.14334324 -0.04469686 0.041603606
-0.14506941 -0.044572368 0.041430369
-0.14682829 -0.044330996 0.041094501
-0.14856066 -0.044198718 0.040910427
-0.15029496 -0.04406647 0.040726401
-0.15204032 -0.043901011 0.040496185
-0.15379004 -0.043727737 0.040255073
-0.15559144 -0.043378368 0.039768919
-0.15734638 -0.04320481 0.03952742
-0.15910363 -0.043031082 0.039285664
-0.16086324 -0.042857245 0.039043762
-0.16262521 -0.042683296 0.038801726
-0.16438957 -0.042509176 0.038559433
-0.16620952 -0.042158145 0.038070984
-0.16798946 -0.041950371 0.037781846
-0.16977525 -0.041732084 0.037478104
-0.17156377 -0.041513689 0.037174214
-0.17335427 -0.041297622 0.03687356
-0.17521802 -0.040859852 0.036264401
-0.17701577 -0.040640615 0.035959329
-0.17881548 -0.040423855 0.035657685
-0.18061891 -0.04020426 0.035352133
-0.18282165 -0.038789369 0.033383306
-0.12623195 -0.02015668 0.012131588
-0.12734331 -0.023147166 0.016266363
-0.1284412 -0.026112121 0.02036581
-0.12888214 -0.031942397 0.028426966
-0.1299555 -0.034806378 0.03238681
-0.1310185 -0.037635971 0.036299113
-0.13206895 -0.04044221 0.040179133
-0.13331388 -0.042348787 0.042815231
-0.13486791 -0.042914871 0.043597929
-0.13660349 -0.042721249 0.043330211
-0.1383175 -0.042624384 0.04319628
-0.14003569 -0.042517181 0.043048073
-0.14175105 -0.042427957 0.042924706
-0.14345495 -0.042389616 0.042871676
-0.14518262 -0.042264514 0.042698715
-0.14694376 -0.04201927 0.042359635
-0.14867562 -0.041893926 0.042186327
-0.15040869 -0.041771162 0.042016592
-0.15214366 -0.041648325 0.04184676
-0.15388127 -0.041522875 0.041673303
-0.15565525 -0.041274242 0.041329522
-0.15739939 -0.041140899 0.041145161
-0.15914552 -0.041007526 0.040960748
-0.1608945 -0.040871423 0.040772572
-0.1626448 -0.040737867 0.040587917
-0.16440709 -0.04057084 0.040356994
-0.16622652 -0.040220916 0.039873172
-0.16799651 -0.040045798 0.039631035
-0.16976891 -0.039870571 0.039388757
-0.17154457 -0.039692648 0.039142765
-0.1733219 -0.039517108 0.038900044
-0.17515738 -0.039165832 0.038414363
-0.17694032 -0.038989965 0.038171206
-0.17872578 -0.038813993 0.037927903
-0.18052562 -0.038601615 0.037634268
-0.18270364 -0.037253346 0.0357701
-0.12596631 -0.019457072 0.015807183
-0.12707597 -0.02244721 0.019915164
-0.12817219 -0.025411893 0.023988163
-0.12861569 -0.03123376 0.031986497
-0.12968865 -0.034092367 0.035913784
-0.1307501 -0.036922012 0.039801255
-0.13187352 -0.039406989 0.043215234
-0.13337961 -0.040198285 0.044302341
-0.13507435 -0.040180352 0.044277705
-0.13676582 -0.040180352 0.044277705
-0.13848276 -0.040080283 0.044140231
-0.14020072 -0.039982736 0.044006225
-0.1419203 -0.039885197 0.043872211
-0.14364156 -0.039787542 0.043738056
-0.14536512 -0.039687339 0.043600384
-0.14711533 -0.039491851 0.043331835
-0.148844 -0.039386358 0.043186892
-0.15057029 -0.03929634 0.043063223
-0.15229897 -0.039203588 0.042935804
-0.15402864 -0.039113466 0.042811986
-0.15577796 -0.038958818 0.042599533
-0.15752074 -0.038835075 0.042429514
-0.15926544 -0.038711291 0.042259451
-0.16101292 -0.038584806 0.042085677
-0.16276164 -0.038460873 0.041915428
-0.16451086 -0.038341988 0.041752096
-0.16630764 -0.038070552 0.041379191
-0.16806608 -0.037936009 0.041194346
-0.16982746 -0.03779877 0.041005794
-0.17159018 -0.037664153 0.040820852
-0.17335509 -0.037529357 0.040635671
-0.17517541 -0.037225898 0.040218752
-0.17695855 -0.037049346 0.039976198
-0.17874506 -0.036870051 0.039729893
-0.18074796 -0.03603445 0.038581897
-0.12460551 -0.015626272 0.015182048
-0.12583339 -0.01813994 0.01861353
-0.12694247 -0.021134019 0.022700796
-0.12803818 -0.024102503 0.026753133
-0.12848264 -0.029932328 0.034711566
-0.12955511 -0.032794815 0.038619213
-0.13039254 -0.036610112 0.043827552
-0.13190874 -0.037381306 0.044880308
-0.13350825 -0.03777897 0.045423191
-0.13521034 -0.037737697 0.04536685
-0.13692299 -0.037657693 0.045257617
-0.13862766 -0.03761638 0.045201235
-0.14033356 -0.037575115 0.045144886
-0.1420401 -0.037536301 0.045091908
-0.14372817 -0.037575115 0.045144886
-0.14545225 -0.037476882 0.045010805
-0.14720364 -0.037280511 0.044742722
-0.1489321 -0.037179682 0.04460508
-0.1506616 -0.037081461 0.044470988
-0.15239286 -0.036983091 0.04433671
-0.15412728 -0.036879484 0.044195276
-0.15588579 -0.036695573 0.043944228
-0.15762118 -0.03660227 0.04381685
-0.15935755 -0.03651157 0.043693021
-0.16107631 -0.03648819 0.043661106
-0.16282655 -0.036361128 0.043487661
-0.16457807 -0.036236532 0.043317568
-0.16636488 -0.036000162 0.042994902
-0.16812477 -0.035862491 0.042806949
-0.16988604 -0.035727229 0.042622313
-0.17165025 -0.035589378 0.042434119
-0.17341582 -0.035454042 0.042249389
-0.17522705 -0.035180468 0.041875925
-0.17699751 -0.035044894 0.041690849
-0.1787702 -0.034909211 0.041505624
-0.18084064 -0.033863347 0.040077887
-0.12444696 -0.014440184 0.018172694
-0.12556905 -0.01745405 0.022260908
-0.12668642 -0.020400872 0.0262582
-0.12781234 -0.023222825 0.030086095
-0.12821807 -0.029234311 0.0382405
-0.1290971 -0.032954834 0.043287281
-0.13057105 -0.03394834 0.044634949
-0.13212462 -0.03457129 0.045479972
-0.13381979 -0.034573901 0.045483511
-0.13551587 -0.034576546 0.045487106
-0.1372004 -0.034631137 0.045561146
-0.13890895 -0.034589466 0.045504618
-0.1406181 -0.034550436 0.045451682
-0.14232914 -0.034508765 0.045395151
-0.14404145 -0.034467123 0.045338675
-0.14575437 -0.034428064 0.045285687
-0.1474801 -0.034344718 0.045172628
-0.14919576 -0.034305543 0.045119502
-0.15091342 -0.034263913 0.045063015
-0.15263242 -0.034222197 0.045006443
-0.15435207 -0.034183107 0.044953402
-0.1560774 -0.034128334 0.044879116
-0.15781662 -0.034029249 0.044744711
-0.15955839 -0.033927411 0.044606563
-0.16130419 -0.033817839 0.044457946
-0.16304661 -0.033726443 0.044333968
-0.16479158 -0.033632372 0.044206347
-0.16656549 -0.033446822 0.04395467
-0.16831367 -0.033355247 0.043830451
-0.17006442 -0.033261102 0.043702736
-0.17181624 -0.033169527 0.04357852
-0.17357074 -0.033075307 0.043450709
-0.17534849 -0.032912903 0.043230418
-0.17712116 -0.032773968 0.043041959
-0.17889524 -0.03263757 0.042856943
-0.18105188 -0.031325456 0.041077081
-0.12531234 -0.0167426 0.02584812
-0.12644497 -0.019609723 0.029712694
-0.12753218 -0.022603728 0.033748277
-0.12779643 -0.029262548 0.042723659
-0.12927835 -0.030261438 0.044070072
-0.13083684 -0.030896327 0.044925835
-0.13247254 -0.031180281 0.04530856
-0.13417333 -0.031180281 0.04530856
-0.13587442 -0.031182904 0.045312088
-0.13757582 -0.031188173 0.045319214
-0.13927877 -0.031190839 0.045322783
-0.14098266 -0.031193493 0.045326367
-0.14268753 -0.031196106 0.045329906
-0.1443934 -0.031198697 0.045333385
-0.14610022 -0.03120131 0.045336924
-0.1478074 -0.031206558 0.045343984
-0.14950177 -0.031264395 0.045421947
-0.15122336 -0.031222353 0.045365281
-0.15294558 -0.031182904 0.045312092
-0.15466985 -0.031140894 0.045255478
-0.15640636 -0.031059392 0.045145631
-0.15813357 -0.031017287 0.045088861
-0.15986212 -0.030975245 0.045032196
-0.16159137 -0.030935753 0.044978961
-0.16332281 -0.03089367 0.044922255
-0.16505566 -0.030851597 0.044865534
-0.16677442 -0.030862112 0.044879716
-0.16852817 -0.030759431 0.044741318
-0.17028537 -0.030651547 0.044595901
-0.17203976 -0.030559286 0.044471525
-0.17379676 -0.030464498 0.044343777
-0.17558454 -0.030277239 0.044091363
-0.17734484 -0.030184969 0.043966997
-0.17937101 -0.029265199 0.042727247
-0.12507711 -0.015939007 0.029286986
-0.12620045 -0.018842902 0.033176403
-0.12724231 -0.022040961 0.037459832
-0.12817769 -0.02563422 0.042272594
-0.12974194 -0.026291521 0.043152977
-0.13141112 -0.02646761 0.043388832
-0.13304298 -0.026806029 0.0438421
-0.13472852 -0.02690717 0.04397757
-0.13641369 -0.027011052 0.044116709
-0.13807571 -0.027213193 0.044387456
-0.13976179 -0.027314192 0.044522732
-0.14144297 -0.02743645 0.044686481
-0.14313293 -0.027524119 0.044803899
-0.14482333 -0.027611712 0.044921223
-0.14649116 -0.027789535 0.045159392
-0.14820337 -0.027794866 0.045166533
-0.14991727 -0.027797531 0.045170106
-0.15163225 -0.02780016 0.04517363
-0.15334824 -0.027802862 0.045177251
-0.15506534 -0.027805423 0.045180675
-0.15678276 -0.027810754 0.04518782
-0.158502 -0.027813457 0.045191441
-0.16022234 -0.02781605 0.045194916
-0.16192643 -0.02787976 0.045280237
-0.16366184 -0.027837312 0.045223385
-0.16539788 -0.027797529 0.04517011
-0.16714868 -0.027712598 0.045056358
-0.16888781 -0.027672824 0.045003075
-0.1706292 -0.027630376 0.044946223
-0.17237215 -0.027587824 0.044889227
-0.17411575 -0.027548041 0.044835947
-0.17587495 -0.027463041 0.044722099
-0.17807928 -0.025968421 0.042720217
-0.12787198 -0.017204458 0.035456661
-0.12902206 -0.019869085 0.03900313
-0.13065211 -0.02028843 0.039561253
-0.13227987 -0.020709731 0.040121976
-0.13390656 -0.021127701 0.04067827
-0.13543849 -0.021948125 0.041770216
-0.13711636 -0.022126479 0.042007599
-0.13875176 -0.022482794 0.042481832
-0.14042872 -0.022660822 0.042718779
-0.14211804 -0.022787431 0.042887285
-0.14378618 -0.023000283 0.043170586
-0.14540681 -0.023401184 0.043704163
-0.14710167 -0.023503311 0.043840084
-0.14876999 -0.023710161 0.044115391
-0.15046525 -0.023812179 0.044251166
-0.15215811 -0.023924895 0.044401195
-0.15385847 -0.024010748 0.044515453
-0.15555865 -0.024099203 0.04463318
-0.15720654 -0.02438066 0.045007784
-0.15893091 -0.024383225 0.045011204
-0.16065635 -0.024385938 0.04501481
-0.16238369 -0.024385938 0.04501481
-0.16411065 -0.024391359 0.045022033
-0.16583952 -0.024393998 0.04502555
-0.16756879 -0.024399282 0.045032572
-0.16929999 -0.024402063 0.045036279
-0.1710324 -0.024404703 0.045039795
-0.17276601 -0.024407417 0.045043405
-0.17448033 -0.024477033 0.045136053
-0.17624277 -0.024393998 0.04502555
-0.13331084 -0.014200019 0.035921834
-0.13480847 -0.015254701 0.037316725
-0.13611396 -0.017118465 0.039781697
-0.13774402 -0.017543353 0.040343635
-0.13929161 -0.018309213 0.041356541
-0.14079064 -0.019260641 0.04261487
-0.14247212 -0.019440144 0.042852286
-0.14415345 -0.019619616 0.043089647
-0.14583465 -0.019798903 0.043326769
-0.14751506 -0.019980699 0.043567203
-0.14914808 -0.020346897 0.044051528
-0.15077074 -0.020747717 0.044581644
-0.15247019 -0.020850467 0.044717532
-0.15417001 -0.020953245 0.044853471
-0.15586954 -0.021058677 0.044992913
-0.15754372 -0.021258615 0.045257349
-0.15924828 -0.021347756 0.045375235
-0.16095415 -0.02143413 0.045489479
-0.16265985 -0.021523124 0.045607172
-0.16433375 -0.021725455 0.045874778
-0.1660652 -0.021728104 0.045878284
-0.1677978 -0.021730829 0.045881882
-0.16953081 -0.021736233 0.045889035
-0.1712658 -0.021738883 0.04589254
-0.173002 -0.021741571 0.045896091
-0.17473944 -0.021744257 0.045899641
-0.17730418 -0.019072821 0.042366471
-0.14593266 -0.01047941 0.035460208
-0.14735256 -0.011804533 0.037201777
-0.14867072 -0.013503035 0.039434057
-0.15021756 -0.014266687 0.040437706
-0.151833 -0.014749737 0.041072559
-0.15330616 -0.015768284 0.042411201
-0.15499569 -0.015949637 0.042649549
-0.15668446 -0.016133502 0.042891197
-0.15832624 -0.016489979 0.043359701
-0.16000612 -0.016703565 0.043640416
-0.16168496 -0.016919814 0.043924619
-0.16331361 -0.017313439 0.044441953
-0.16502343 -0.017417172 0.044578288
-0.16672976 -0.017534604 0.044732619
-0.16841908 -0.017711947 0.044965703
-0.17013419 -0.017801914 0.04508394
-0.17184992 -0.017891845 0.045202132
-0.17356712 -0.017979078 0.045316782
-0.17528416 -0.01806901 0.04543497
-0.15869023 -0.0067353263 0.034994073
-0.15960589 -0.0098658139 0.039082583
-0.16124195 -0.010296417 0.03964496
-0.16288885 -0.010681802 0.040148284
-0.16450566 -0.011169646 0.040785424
-0.16595051 -0.012256455 0.042204835
-0.16766475 -0.012384064 0.042371493
-0.16928929 -0.01282187 0.042943273
-0.17097738 -0.013037609 0.043225035
-0.17266446 -0.013256088 0.043510381
-0.17523065 -0.010545013 0.039969645
-0.17123485 -0.0041946443 0.036116093
