# .PCD v0.7 - Point Cloud Data file format
VERSION 0.7
FIELDS x y z
SIZE 4 4 4
TYPE F F F
COUNT 1 1 1
WIDTH 1023
HEIGHT 1
VIEWPOINT 0 0 0 1 0 0 0
POINTS 1023
DATA ascii
-0.041116305 0.072602063 0.0079897977
-0.043168657 0.076638542 0.0032168287
-0.035521209 0.074572459 0.010167814
-0.03735204 0.073700622 0.011192415
-0.039178062 0.072834782 0.012209951
-0.04101244 0.072276369 0.012866209
-0.043050896 0.076181367 0.0082770167
-0.04508239 0.079467379 0.0044152578
-0.03178028 0.076126754 0.01282829
-0.033614542 0.07525342 0.013848361
-0.035443824 0.074382573 0.014865523
-0.037268285 0.073517635 0.015875783
-0.039087716 0.072651684 0.016887223
-0.040909521 0.071955681 0.017700164
-0.042934086 0.075726911 0.013295321
-0.04495655 0.078993618 0.0094797602
-0.047000747 0.082298271 0.0056198714
-0.049066894 0.085638195 0.0017187949
-0.029934516 0.0788109 0.01416778
-0.03174831 0.077057473 0.016203273
-0.033579309 0.076184414 0.017216789
-0.035405338 0.075313799 0.018227445
-0.037226569 0.074449167 0.019231178
-0.039042786 0.073583439 0.020236181
-0.04085926 0.072838753 0.021100661
-0.042875949 0.076526955 0.016819146
-0.044894189 0.079794861 0.013025521
-0.046933714 0.083093405 0.0091963531
-0.048995271 0.086430639 0.0053222608
-0.024351066 0.081238292 0.015810315
-0.026198186 0.080356479 0.016827725
-0.028040301 0.079480618 0.017838269
-0.029877299 0.0786037 0.018850036
-0.031684719 0.076857224 0.020865079
-0.033509217 0.07598754 0.02186849
-0.035328902 0.075123899 0.022864953
-0.037143584 0.074259073 0.023862764
-0.038953405 0.073396705 0.02485773
-0.040762294 0.072627142 0.025745632
-0.042760547 0.076072007 0.021771047
-0.044769872 0.079320781 0.01802269
-0.046800654 0.082607016 0.014231121
-0.048853111 0.085928045 0.010399408
-0.050927371 0.08928062 0.0065312949
-0.05302421 0.092672527 0.002617806
-0.020617718 0.082785465 0.018465444
-0.02246842 0.081902221 0.019478297
-0.024314005 0.081021443 0.020488311
-0.026154576 0.080146588 0.021491522
-0.027990041 0.079270639 0.022495996
-0.029820498 0.078397207 0.023497591
-0.031621683 0.076660968 0.025488572
-0.033439737 0.075794764 0.026481884
-0.035252895 0.074930951 0.027472446
-0.037061192 0.074069493 0.028460305
-0.038864806 0.073213957 0.029441364
-0.040665876 0.072412655 0.030360244
-0.042641573 0.075521745 0.026794963
-0.044646725 0.078853086 0.022974823
-0.046668675 0.082123719 0.019224295
-0.048711903 0.085425019 0.015438606
-0.05077716 0.088764913 0.011608647
-0.052864604 0.092140198 0.0077381269
-0.054974612 0.095551439 0.0038263553
-0.016894575 0.085212938 0.020108223
-0.018744998 0.083444551 0.022123698
-0.020594174 0.082562394 0.023129126
-0.022438278 0.081686102 0.024127863
-0.024277266 0.080808669 0.025127904
-0.02611121 0.079933792 0.026125021
-0.027940141 0.07906124 0.027119493
-0.029764101 0.078191258 0.028111048
-0.031558998 0.076461874 0.030082075
-0.03337064 0.075598933 0.031065591
-0.035177425 0.07473848 0.032046281
-0.036979515 0.073883854 0.033020321
-0.038776699 0.073028207 0.033995531
-0.04056986 0.072192058 0.034948517
-0.042546175 0.075469919 0.031212637
-0.044518914 0.078272134 0.028018871
-0.046537746 0.081643395 0.024176534
-0.048572041 0.084928907 0.020431947
-0.050628167 0.088252582 0.016643846
-0.052706297 0.091611318 0.012815789
-0.054806575 0.095002167 0.0089511434
-0.057129644 0.10144597 0.0016069423
-0.011302676 0.087646015 0.021748008
-0.0131685 0.086754814 0.022757545
-0.015029087 0.08586622 0.023764126
-0.016884489 0.084983557 0.024763996
-0.018728254 0.083218656 0.026763234
-0.020570796 0.082339905 0.027758669
-0.022408307 0.081467167 0.028747298
-0.024240736 0.080593236 0.02973727
-0.026068155 0.079721712 0.030724511
-0.027890602 0.078852683 0.031708933
-0.029708194 0.077989466 0.03268677
-0.03149676 0.076263301 0.034642134
-0.033302043 0.075403802 0.035615768
-0.035102498 0.074546665 0.036586709
-0.036898293 0.073695347 0.037551075
-0.038690716 0.072880857 0.038473714
-0.040480241 0.072106205 0.039351217
-0.042451419 0.075417712 0.035600007
-0.044417132 0.078210361 0.03243655
-0.046400778 0.081028149 0.029244615
-0.048433304 0.08443597 0.025384296
-0.050480381 0.087743521 0.021637561
-0.052549068 0.091082372 0.017855369
-0.054640144 0.09446016 0.014029075
-0.056981593 0.1013203 0.006258029
-0.059130844 0.10480753 0.0023077668
-0.0075671035 0.090338811 0.023098852
-0.0094400765 0.089443013 0.024107417
-0.011307744 0.088553362 0.025109058
-0.013170185 0.087662518 0.026112042
-0.015027414 0.086777858 0.02710806
-0.016879467 0.085892014 0.028105417
-0.018719928 0.084127694 0.030091831
-0.020559208 0.08325287 0.03107678
-0.0223934 0.082376733 0.032063201
-0.024222568 0.081503183 0.033046719
-0.026046811 0.080635451 0.034023676
-0.027866041 0.079766698 0.035001796
-0.029680349 0.078900315 0.035977233
-0.03146581 0.077174738 0.037920032
-0.033267926 0.076315537 0.038887389
-0.035065234 0.075458631 0.039852157
-0.036858406 0.074621439 0.040794738
-0.038649108 0.073841497 0.041672856
-0.040435661 0.073067032 0.042544816
-0.042404357 0.076402374 0.038789622
-0.044366408 0.0791912 0.035649735
-0.046346493 0.082008652 0.032477617
-0.048364446 0.0852158 0.028866753
-0.050406836 0.088517278 0.025149686
-0.052471146 0.091856942 0.021389626
-0.054557554 0.095231973 0.017589746
-0.0568933 0.1020862 0.0098727113
-0.05903763 0.10557035 0.0059499736
-0.061193291 0.10892282 0.0021754955
0.033080723 0.11225205 0.0029486064
0.031086979 0.11130057 0.0040133442
0.029099075 0.11034805 0.0050792359
0.027117239 0.10939824 0.0061421036
-0.0057163909 0.091201566 0.026504656
-0.0075850976 0.090639398 0.027133731
-0.0094539477 0.089601114 0.028295599
-0.011316691 0.088566214 0.029453682
-0.013173374 0.087531075 0.030612029
-0.015024074 0.086538695 0.031722527
-0.016869474 0.085656345 0.032709897
-0.018703392 0.083902635 0.034672353
-0.020536084 0.083027646 0.03565149
-0.022363748 0.082155004 0.036627997
-0.024186427 0.081284866 0.037601702
-0.026004149 0.080417074 0.038572781
-0.027816951 0.079551712 0.039541144
-0.029624864 0.078688659 0.040506925
-0.031404234 0.076973252 0.042426512
-0.033200055 0.076117352 0.04338428
-0.034992371 0.075301677 0.044297043
-0.036781427 0.074522719 0.045168724
-0.038566314 0.073749088 0.046034437
-0.04034695 0.072977282 0.046898101
-0.042310536 0.076345772 0.04312868
-0.044265643 0.079125121 0.040018514
-0.04623865 0.081932791 0.036876656
-0.048229672 0.084765807 0.033706438
-0.050260831 0.088008665 0.030077593
-0.05231604 0.091332279 0.026358385
-0.054393142 0.09469074 0.022600183
-0.05671756 0.10151117 0.014967946
-0.058851834 0.10497405 0.011092893
-0.061009634 0.10847794 0.0071719466
-0.063191094 0.11201971 0.0032086216
0.038977098 0.11573704 0.0035633983
0.036969632 0.11477862 0.004629374
0.034968056 0.11381909 0.005696591
0.032904908 0.11191218 0.00781749
0.03091858 0.11096089 0.0088755181
0.028938316 0.11001241 0.0099304412
0.026964076 0.1090666 0.01098239
0.024996046 0.10812737 0.012027016
-7.1630617e-05 0.095800854 0.025736794
-0.0019528957 0.095236115 0.026364902
-0.0038156516 0.095617399 0.025940839
-0.0056958962 0.094825946 0.026821103
-0.007567958 0.09437982 0.027317295
-0.0094398903 0.093587771 0.028198222
-0.011306506 0.092950448 0.02890707
-0.013170548 0.091520235 0.030497774
-0.015026437 0.09020815 0.031957097
-0.016868599 0.087496385 0.034973174
-0.01868692 0.083671354 0.039227441
-0.020513088 0.082799815 0.040196788
-0.022334263 0.081930585 0.04116356
-0.024150545 0.081067421 0.042123586
-0.025961857 0.080202982 0.043085031
-0.027768286 0.079340972 0.044043768
-0.029569861 0.078481287 0.044999935
-0.031342614 0.076755241 0.046919674
-0.033134453 0.075978555 0.047783516
-0.03491082 0.074870236 0.049016204
-0.036707461 0.074492596 0.04943623
-0.038501687 0.074105054 0.049867261
-0.040293865 0.073718026 0.050297718
-0.042217344 0.076289035 0.047438189
-0.044165544 0.079058826 0.044357579
-0.046131529 0.081856839 0.041245587
-0.048115402 0.084679984 0.038105629
-0.050117217 0.08752504 0.034941308
-0.052162178 0.090811163 0.03128643
-0.054229848 0.094149716 0.027573226
-0.05654325 0.10094009 0.020020856
-0.058667824 0.10438567 0.01618861
-0.060815722 0.10787197 0.012311092
-0.062987074 0.11139578 0.0083918497
0.044815928 0.11827026 0.0052472688
0.042797212 0.11730368 0.0063157869
0.040785104 0.11634382 0.0073768683
0.038778909 0.1153828 0.0084392326
0.036778919 0.11442462 0.0094984574
0.034785081 0.11346912 0.010554716
0.032730132 0.11157038 0.012653688
0.030751429 0.11062314 0.01370083
0.028778743 0.10967857 0.014745005
0.026812281 0.10874057 0.01578192
0.024851508 0.10780145 0.016820081
0.022896636 0.10686505 0.017855225
0.0055929809 0.099579766 0.025908783
0.0037219576 0.09975753 0.02571228
0.0018483079 0.099865027 0.025593447
-2.584749e-05 0.099972479 0.025474658
-0.0019016354 0.10002065 0.025421416
-0.0037802677 0.099902019 0.025552554
-0.0056609833 0.099565074 0.025925027
-0.0075403177 0.099165402 0.026366854
-0.0094162626 0.09890677 0.026652761
-0.011293029 0.098106049 0.027537916
-0.013165131 0.097307459 0.028420728
-0.015032333 0.096327379 0.029504159
-0.016891845 0.094883084 0.031100763
-0.018689927 0.086113274 0.040795401
-0.020490468 0.082594007 0.0446858
-0.022305261 0.081728227 0.045642875
-0.02411508 0.080861218 0.046601325
-0.025920063 0.080000244 0.047553089
-0.027720191 0.079141475 0.048502419
-0.029518658 0.078413263 0.049307425
-0.031313542 0.077704065 0.050091412
-0.033114467 0.077324048 0.050511505
-0.034929682 0.077434622 0.050389264
-0.036742065 0.077444956 0.050377849
-0.038554821 0.077458806 0.050362535
-0.040367838 0.077472582 0.05034731
-0.042174309 0.077334501 0.050499957
-0.044058971 0.078843087 0.048832275
-0.046025116 0.081780717 0.045584854
-0.048001897 0.084594116 0.042474765
-0.049996492 0.087429218 0.039340694
-0.052009549 0.09029346 0.036174398
-0.054068085 0.09361583 0.032501657
-0.056370366 0.10037304 0.025031865
-0.058485329 0.10380156 0.021241797
-0.060623404 0.1072703 0.017407253
-0.062784739 0.11077628 0.013531547
-0.064969428 0.11431617 0.0096183587
0.044595465 0.11790184 0.010123343
0.042584606 0.11693935 0.011180869
0.04058031 0.11598357 0.012231024
0.038581885 0.11502666 0.013282415
0.036589615 0.11407249 0.014330804
0.034603745 0.11312497 0.015371869
0.032556649 0.1112304 0.01745351
0.030585513 0.11028715 0.018489897
0.028620604 0.10935044 0.019519093
0.02666137 0.10841253 0.02054961
0.024708033 0.10747731 0.021577168
0.022760559 0.10654483 0.022601729
0.020772923 0.10475516 0.024568105
0.018844951 0.1039351 0.025469147
0.0093695894 0.1023234 0.027239986
0.0075205131 0.10319909 0.026277825
0.0056466493 0.10341927 0.026035905
0.0037717742 0.10364342 0.025789617
0.0018960142 0.10387895 0.025530841
1.6260641e-05 0.10398743 0.025411647
-0.0018640107 0.10409596 0.025292408
-0.0037439244 0.10426059 0.025111519
-0.0056299674 0.10402105 0.025374711
-0.0075129326 0.10394257 0.025460942
-0.0093977703 0.10353511 0.025908636
-0.0112802 0.1031319 0.026351655
-0.013160374 0.10266218 0.026867751
-0.015037339 0.10185481 0.027754847
-0.016910184 0.10117174 0.028505363
-0.018763214 0.098288447 0.031673346
-0.020490432 0.084606789 0.046705913
-0.022282906 0.082022153 0.04954575
-0.024096143 0.081680082 0.049921606
-0.025907483 0.081338406 0.050297014
-0.027726987 0.081460379 0.050162993
-0.029544216 0.08145681 0.05016692
-0.031361353 0.081446446 0.050178304
-0.033179935 0.08148127 0.050140046
-0.034999669 0.08154051 0.050074954
-0.036818273 0.081554525 0.050059553
-0.038637128 0.081568465 0.050044239
-0.04045625 0.08158236 0.050028972
-0.042276278 0.081610315 0.049998257
-0.044096015 0.08162421 0.049982991
-0.04594785 0.082266755 0.049277
-0.047889151 0.08450827 0.046814166
-0.049876574 0.087333478 0.043709993
-0.051882338 0.090187691 0.040573958
-0.053906508 0.093067691 0.037409592
-0.056198884 0.099809937 0.030001625
-0.05830431 0.10322142 0.026253292
-0.060432673 0.10667304 0.022460872
-0.06258408 0.11016136 0.018628119
-0.064758636 0.11368322 0.014758515
0.044485841 0.1187772 0.013606498
0.042479228 0.11781921 0.014652682
0.040478494 0.11686014 0.015700052
0.038483925 0.11590369 0.016744561
0.036495499 0.1149501 0.017785948
0.034513444 0.11400303 0.018820206
0.032470383 0.11210939 0.020888194
0.030503012 0.11116663 0.021917745
0.028541841 0.11023036 0.022940213
0.026586328 0.10929297 0.02396391
0.024636686 0.10835819 0.024984747
0.022692889 0.10742616 0.026002593
0.020706885 0.10559625 0.028000971
0.018782828 0.10478034 0.028892003
0.016863646 0.10396281 0.029784795
0.014954647 0.10326254 0.030549545
0.013088491 0.10348591 0.0303056
0.011241844 0.10423873 0.029483475
0.0093880221 0.1049075 0.028753135
0.0075500701 0.10616627 0.027378479
0.0056736544 0.10638779 0.027136559
0.0037961192 0.10660948 0.026894461
0.0019175354 0.10683511 0.026648052
3.7449412e-05 0.10704576 0.026418012
-0.0018456401 0.107155 0.026298724
-0.003729267 0.10726418 0.026179479
-0.0056150062 0.10725294 0.026191758
-0.0075017172 0.10713239 0.02632341
-0.0093879262 0.10697807 0.026491936
-0.011274316 0.10656814 0.02693961
-0.013158312 0.10616627 0.027378479
-0.015039727 0.10558497 0.028013293
-0.016916804 0.10477284 0.028900189
-0.018778339 0.1024488 0.031438202
-0.020631857 0.10065386 0.033398386
-0.022285221 0.084208295 0.051358044
-0.024109075 0.084502995 0.05103622
-0.025929119 0.084499486 0.051040046
-0.027749157 0.084492438 0.051047746
-0.029569345 0.084488973 0.051051531
-0.031389434 0.084478416 0.051063057
-0.033210129 0.084485382 0.051055446
-0.03503298 0.084552065 0.050982624
-0.036856629 0.084625803 0.050902098
-0.038678557 0.084639862 0.050886746
-0.040500756 0.084653929 0.050871387
-0.042323701 0.084678501 0.050844546
-0.044146504 0.084692568 0.050829191
-0.045969609 0.084706545 0.050813921
-0.047842152 0.085641928 0.049792424
-0.049817014 0.088297822 0.046892013
-0.051818945 0.091148004 0.043779429
-0.053839415 0.094027475 0.040634852
-0.056113545 0.10055798 0.033503115
-0.058214489 0.10397023 0.029776705
-0.060337756 0.10741492 0.026014874
-0.062484223 0.11089995 0.022208998
-0.064654037 0.11442228 0.018362375
0.044268176 0.11841162 0.018418916
0.042268991 0.11745387 0.019458499
0.040275972 0.11649878 0.020495189
0.038289096 0.11554648 0.021528849
0.036308594 0.11460073 0.022555402
0.034333836 0.11365385 0.023583185
0.032298815 0.11176817 0.025629973
0.030339181 0.11083318 0.026644858
0.028385188 0.109897 0.027661012
0.026437074 0.10896354 0.028674228
0.02449479 0.1080327 0.029684594
0.022558302 0.10710454 0.030692063
0.020578526 0.10525596 0.032698575
0.018689614 0.10499861 0.03297792
0.016820459 0.10512169 0.032844324
0.014980756 0.10591711 0.031980935
0.013133977 0.10664702 0.031188667
0.011283418 0.1073823 0.030390562
0.0094269961 0.10806657 0.029647827
0.0075871893 0.10936762 0.028235625
0.0057212585 0.1100447 0.0275007
0.0038452151 0.11048803 0.027019493
0.0019613991 0.11071179 0.026776612
7.6504672e-05 0.11093948 0.02652947
-0.0018096555 0.11116361 0.026286192
-0.0036980889 0.11131931 0.026117193
-0.0055865017 0.11153988 0.025877772
-0.0074783689 0.11153612 0.025881853
-0.0093710115 0.11141442 0.026013957
-0.01126246 0.11139922 0.026030455
-0.013154368 0.11098883 0.026475903
-0.015043913 0.11057898 0.026920782
-0.016931213 0.1101924 0.027340388
-0.01880732 0.10855251 0.029120382
-0.020678312 0.10733724 0.030439485
-0.022542968 0.10616772 0.031708922
-0.02415189 0.089222953 0.050101418
-0.025967738 0.08857736 0.050802168
-0.027793719 0.088570327 0.050809801
-0.029619846 0.088566728 0.050813705
-0.031445973 0.088559657 0.050821386
-0.033272196 0.088552624 0.050829019
-0.035099689 0.088580959 0.050798263
-0.036928903 0.08864826 0.050725214
-0.038758542 0.088712081 0.050655939
-0.040589917 0.088804245 0.050555907
-0.04241918 0.088832572 0.050525151
-0.044248156 0.088846847 0.050509665
-0.046077434 0.088860989 0.050494306
-0.04790704 0.088875175 0.050478909
-0.049739562 0.088935405 0.050413538
-0.051655829 0.090407386 0.048815794
-0.053706136 0.093908049 0.045016035
-0.055944134 0.099996373 0.038407538
-0.058035675 0.10339187 0.034721941
-0.060149342 0.10681942 0.031001553
-0.062286027 0.1102871 0.027237594
-0.064445846 0.11379173 0.023433538
0.044051789 0.11804444 0.023199284
0.042060304 0.11709061 0.024228308
0.040074959 0.11613968 0.025254229
0.038096007 0.11519523 0.026273152
0.036122777 0.11424965 0.027293298
0.034155551 0.1133067 0.028310599
0.032128777 0.11143277 0.030332301
0.030176297 0.11049785 0.031340942
0.028229691 0.10956565 0.032346647
0.026288915 0.10863604 0.033349559
0.024353925 0.10770903 0.034349669
0.022424694 0.10678469 0.035346892
0.020516381 0.10615003 0.036031596
0.01868587 0.10699032 0.035125062
0.016856734 0.10795649 0.034082692
0.015022258 0.10892178 0.033041287
0.013175859 0.10972772 0.032171797
0.011322354 0.11046387 0.031377599
0.0094650174 0.11120538 0.030577624
0.0076231831 0.11254144 0.029136211
0.0057525863 0.11316953 0.028458592
0.0038801343 0.11385609 0.027717892
0.0020025247 0.11448674 0.027037518
0.00011544817 0.11483894 0.026657546
-0.0017758836 0.11506491 0.026413754
-0.0036683506 0.11529495 0.026165584
-0.0055607702 0.11562493 0.025809582
-0.0074572414 0.11573238 0.025693659
-0.0093542486 0.11584377 0.025573486
-0.011252848 0.11572468 0.02570197
-0.013150749 0.1156019 0.025834432
-0.01504788 0.11543687 0.026012477
-0.016943004 0.11502279 0.026459204
-0.018831436 0.1140013 0.027561242
-0.020715993 0.11317338 0.028454436
-0.022594813 0.11226393 0.029435605
-0.024459295 0.11077014 0.031047191
-0.026046004 0.094799303 0.048277374
-0.027838646 0.092677869 0.050566096
-0.02967068 0.092670806 0.050573707
-0.031502787 0.092663631 0.050581452
-0.033334989 0.092656493 0.050589148
-0.035167411 0.092652887 0.050593041
-0.037001766 0.092699394 0.050542865
-0.038837388 0.092767358 0.050469548
-0.040673591 0.092835352 0.050396189
-0.042513248 0.092967823 0.050253272
-0.044350497 0.093028732 0.050187565
-0.046185985 0.093043044 0.050172124
-0.048021805 0.093057357 0.050156683
-0.049857963 0.093071714 0.050141197
-0.051682495 0.092881948 0.050345924
-0.05357993 0.093889445 0.049258981
-0.055785269 0.099581316 0.043118291
-0.057858307 0.10281771 0.039626699
-0.059962466 0.10622834 0.035947129
-0.062089447 0.10967874 0.032224648
-0.06423936 0.11316572 0.028462708
0.043836992 0.11767942 0.027943905
0.041853163 0.11672968 0.028962329
0.039875425 0.11578273 0.029977746
0.037904032 0.11484226 0.030986227
0.035938323 0.1139006 0.031995971
0.03397857 0.1129616 0.033002883
0.031959713 0.11109558 0.035003837
0.030014604 0.11016455 0.0360022
0.028075323 0.10923615 0.036997724
0.026141834 0.10831044 0.037990373
0.024214309 0.10739104 0.03897626
0.022314653 0.10687262 0.039532166
0.020524878 0.10837406 0.037922155
0.01871362 0.10961171 0.036595006
0.016887235 0.11067303 0.035456937
0.015050997 0.11164337 0.034416441
0.013209709 0.1126202 0.033368967
0.011363019 0.11359623 0.032322366
0.0095013967 0.11430436 0.031563029
0.0076616844 0.11579803 0.029961349
0.0057902178 0.11651088 0.02919695
0.0039099818 0.11704472 0.028624514
0.0020294662 0.11768711 0.027935663
0.00014650803 0.11838097 0.027191637
-0.0017442184 0.11886363 0.026674071
-0.0036395967 0.1192193 0.02629268
-0.0055355802 0.11967992 0.025798755
-0.0074371006 0.11984263 0.025624285
-0.0093398578 0.11995506 0.025503727
-0.011243219 0.12006757 0.025383079
-0.013147374 0.12005975 0.025391454
-0.015051316 0.11993956 0.025520343
-0.016954994 0.11991629 0.025545295
-0.018852763 0.11908003 0.026442027
-0.020750057 0.11867042 0.026881255
-0.022639578 0.11783347 0.027778728
-0.024528099 0.11723309 0.028422525
-0.026396377 0.11572144 0.030043483
-0.028261164 0.11444547 0.031411719
-0.029737195 0.097434163 0.049653135
-0.031559974 0.096794084 0.050339501
-0.033398304 0.096790463 0.050343383
-0.035236642 0.096783303 0.050351061
-0.037075225 0.096779644 0.050354984
-0.038916744 0.096848302 0.050281361
-0.040758699 0.096913308 0.050211661
-0.042604424 0.097050712 0.050064318
-0.04444775 0.09711583 0.049994487
-0.046291851 0.097184494 0.049920861
-0.048137356 0.09726768 0.049831662
-0.049979776 0.097282201 0.049816094
-0.051822539 0.097296596 0.049800653
-0.053665459 0.097307496 0.049788963
-0.055599108 0.098725304 0.048268627
-0.05769049 0.10236883 0.044361632
-0.0597771 0.10564156 0.040852256
-0.061894462 0.10907483 0.037170716
-0.064034566 0.11254439 0.033450276
0.045995574 0.1226074 0.027014228
0.043730196 0.11854205 0.031347133
0.041750167 0.11759282 0.032358833
0.039776515 0.11665012 0.033363573
0.037808575 0.11570635 0.034369439
0.035846606 0.11476525 0.035372484
0.033890575 0.1138268 0.036372699
0.03187564 0.1119616 0.038360652
0.0299342 0.11103106 0.039352432
0.027998561 0.11010318 0.040341381
0.026062058 0.10906944 0.041443147
0.024150861 0.10836337 0.042195689
0.022283362 0.10836712 0.042191688
0.020531008 0.11055365 0.039861258
0.018719254 0.11179189 0.038541526
0.01690091 0.11303475 0.037216876
0.015065382 0.1140431 0.036142163
0.013223213 0.11502411 0.035096586
0.011375626 0.11600411 0.0340521
0.0095228953 0.11699087 0.033000391
0.007678532 0.11839963 0.031498913
0.0058066687 0.11915052 0.03069862
0.0039285412 0.11982203 0.029982913
0.0020434884 0.12035954 0.029410025
0.00015782852 0.12100633 0.028720673
-0.0017305164 0.12170098 0.027980307
-0.0036271382 0.12211306 0.027541107
-0.0055237273 0.1227048 0.026910421
-0.0074270228 0.12295428 0.026644526
-0.0093326569 0.12306735 0.026524017
-0.011238897 0.12318054 0.026403377
-0.013145671 0.12335616 0.026216198
-0.01505301 0.12323122 0.026349364
-0.016959645 0.1231064 0.026482398
-0.018862793 0.1225879 0.027035018
-0.020764004 0.12216754 0.027483048
-0.022661589 0.12164663 0.028038235
-0.024551257 0.1208048 0.02893547
-0.026437255 0.12001915 0.029772816
-0.028303305 0.11850349 0.031388238
-0.030157397 0.11684537 0.033155479
-0.031588707 0.099884309 0.051232778
-0.033430066 0.099880718 0.051236607
-0.035271425 0.099873453 0.051244348
-0.037113037 0.099869825 0.051248219
-0.038956475 0.099909812 0.051205598
-0.040801529 0.099978894 0.051131971
-0.042650227 0.10011709 0.050984669
-0.044496521 0.10018263 0.050914828
-0.046343591 0.10025175 0.050841156
-0.048191305 0.10032091 0.05076744
-0.050040886 0.10041195 0.050670415
-0.051886801 0.1004266 0.050654802
-0.053733073 0.10044108 0.050639365
-0.055597942 0.10073989 0.05032089
-0.057616901 0.10331272 0.047578745
-0.059677348 0.10626551 0.044431623
-0.061797421 0.10980315 0.040661167
-0.06393265 0.11326954 0.036966644
0.045814432 0.12268249 0.031261265
0.043517761 0.11817632 0.036034901
0.041545302 0.11723112 0.037036207
0.039579175 0.11629246 0.038030576
0.037618704 0.11535258 0.039026245
0.035664167 0.11441539 0.04001905
0.033715531 0.11348087 0.041009039
0.031697974 0.11147316 0.043135926
0.029778758 0.11076417 0.043886993
0.027864004 0.11005678 0.044636369
0.025953675 0.10935079 0.045384269
0.024049701 0.10867995 0.04609492
0.022207333 0.10904875 0.045704234
0.020532986 0.1126545 0.041884467
0.018738037 0.11423742 0.040207587
0.016911754 0.11533743 0.039042287
0.015086156 0.11658979 0.037715599
0.013253872 0.1178469 0.036383875
0.011400876 0.11874393 0.035433605
0.0095463442 0.11973575 0.034382913
0.0077123079 0.12152317 0.032489397
0.005837576 0.12227874 0.031688984
0.0039588637 0.12303995 0.030882591
0.0020759173 0.12379908 0.030078407
0.00018483713 0.12437238 0.029471084
-0.0017099414 0.1249155 0.028895721
-0.0036059225 0.12557299 0.028199203
-0.0055016284 0.12653813 0.027176779
-0.0074087284 0.12689985 0.026793594
-0.0093187196 0.1271359 0.026543526
-0.011230179 0.12733284 0.026334913
-0.013142851 0.12744699 0.026213979
-0.015056164 0.12756124 0.026092958
-0.01696988 0.12761645 0.026034463
-0.018881753 0.12736426 0.026301613
-0.020792235 0.12711233 0.026568504
-0.022699133 0.12668745 0.027018597
-0.024605289 0.12636536 0.02735981
-0.026499951 0.12551434 0.028261341
-0.028389925 0.12466533 0.029160747
-0.030267924 0.12351473 0.030379642
-0.031672008 0.10500678 0.049986109
-0.033493903 0.1040547 0.050994698
-0.03534146 0.10405094 0.050998688
-0.037189029 0.10404362 0.051006451
-0.039036594 0.10403264 0.05101807
-0.040887609 0.10410243 0.050944138
-0.042742126 0.10423829 0.050800223
-0.044594541 0.10430808 0.050726291
-0.046447583 0.10437791 0.050652318
-0.048301075 0.10444406 0.050582245
-0.050155405 0.10451388 0.050508272
-0.052010406 0.10458376 0.05043425
-0.053866096 0.10465367 0.050360192
-0.055722721 0.10472722 0.05028227
-0.057577126 0.10475657 0.050251178
-0.059496582 0.10571454 0.049236346
-0.061595362 0.10907114 0.045680519
-0.063730352 0.11265074 0.041888461
0.04549386 0.12118029 0.037142344
0.043306883 0.11781292 0.040687982
0.041342251 0.11687551 0.041675005
0.039383266 0.11593696 0.042663243
0.037430216 0.115001 0.043648753
0.035483066 0.11406779 0.044631369
0.033543937 0.11316726 0.045579568
0.031574316 0.11174785 0.047074113
0.029660413 0.11104052 0.047818899
0.027750706 0.110331 0.04856598
0.025845652 0.10962665 0.049307607
0.023962857 0.10923227 0.049722869
0.022177665 0.11056233 0.048322402
0.020529231 0.11464559 0.044022985
0.018723005 0.11600147 0.042595323
0.016920464 0.11759542 0.040916994
0.015096219 0.1188946 0.039549034
0.013263477 0.12016036 0.038216271
0.011423821 0.12142706 0.036882512
0.0095698424 0.12248579 0.035767734
0.0077406145 0.1244846 0.033663116
0.0058706659 0.12548658 0.032608088
0.0039869784 0.1261823 0.031875536
0.0021011287 0.12694611 0.031071303
0.00021120312 0.12771565 0.030261017
-0.0016843075 0.12841202 0.029527774
-0.0035859677 0.12895989 0.028950907
-0.0054821842 0.13017318 0.027673397
-0.0073922952 0.13066845 0.027151912
-0.0093063554 0.13099372 0.026809415
-0.011222049 0.131359 0.026424808
-0.013139931 0.13162136 0.026148546
-0.015059081 0.13173667 0.026027147
-0.01697889 0.13185205 0.025905659
-0.018898925 0.13190378 0.025851185
-0.020817515 0.13177641 0.025985295
-0.022735741 0.13167298 0.0260942
-0.024648326 0.13123988 0.02655023
-0.026558621 0.13081121 0.02700159
-0.028464083 0.1302643 0.027577464
-0.030359078 0.12940598 0.028481219
-0.03220845 0.12702458 0.030988686
-0.034062345 0.12524457 0.032862909
-0.035411838 0.10825213 0.050754901
-0.037265532 0.10824478 0.050762642
-0.039119497 0.10824101 0.050766621
-0.040974092 0.10824843 0.050758794
-0.042834774 0.10838932 0.05061046
-0.044693194 0.10845982 0.050536226
-0.046552055 0.10852658 0.05046593
-0.048411738 0.10859704 0.050391741
-0.050272085 0.10866757 0.050317466
-0.052132886 0.10873438 0.050247125
-0.053994581 0.10880496 0.050172806
-0.055861477 0.10894608 0.050024211
-0.057725292 0.10902418 0.049941983
-0.059585497 0.10903896 0.049926419
-0.061471079 0.10939968 0.049546611
-0.063517883 0.11187913 0.046935901
0.045061011 0.11839179 0.04432309
0.04309788 0.11745575 0.045302711
0.041140366 0.11651844 0.04628367
0.039188184 0.11557626 0.047269713
0.03725918 0.11485901 0.048020359
0.035335019 0.11414721 0.048765313
0.033415366 0.11343692 0.049508672
0.031494241 0.11264195 0.050340656
0.029631613 0.11265694 0.050324965
0.027769467 0.11267564 0.050305393
0.025907306 0.1126906 0.050289746
0.024045585 0.11270938 0.050270092
0.022190845 0.11285176 0.050121073
0.020474745 0.11566309 0.04717885
0.018705929 0.11772178 0.045024291
0.016906064 0.11935732 0.043312605
0.015095882 0.12096249 0.04163269
0.013277348 0.12257933 0.039940573
0.011432657 0.1237428 0.038722921
0.009585714 0.12502313 0.037382979
0.0077624042 0.12724996 0.035052467
0.0058906153 0.12825701 0.03399853
0.0040134937 0.12927113 0.03293718
0.0021264181 0.13010271 0.032066874
0.0002335663 0.13087697 0.031256571
-0.0016635779 0.13164908 0.030448511
-0.0035648914 0.13242687 0.029634504
-0.0054657878 0.13357703 0.028430775
-0.0073789717 0.13413168 0.027850313
-0.0092942948 0.13481919 0.027130792
-0.011214956 0.13515145 0.026783057
-0.013137474 0.13547993 0.026439289
-0.015061897 0.13585305 0.026048794
-0.016987702 0.13605371 0.025838783
-0.018914888 0.13628672 0.025594933
-0.02084168 0.13634297 0.025536053
-0.022766549 0.13621843 0.025666403
-0.037375681 0.11341439 0.049532253
-0.039202668 0.11246967 0.050520971
-0.04106297 0.112466 0.050524808
-0.042927865 0.11256333 0.050422948
-0.044792317 0.11263446 0.050348505
-0.046657395 0.11270563 0.050274018
-0.048523128 0.11277681 0.050199531
-0.050389316 0.11284423 0.050128967
-0.052256383 0.11291549 0.050054394
-0.054124132 0.11298666 0.049979907
-0.055996884 0.11312547 0.049834643
-0.057866257 0.11319672 0.04976007
-0.059736371 0.11326802 0.049685452
-0.061609395 0.11336938 0.049579371
-0.063483059 0.11346691 0.049477294
0.044846438 0.11803678 0.048910141
0.042930651 0.11757024 0.049395446
0.041017991 0.11710453 0.04987989
0.03910812 0.1166356 0.050367691
0.037251581 0.11681702 0.050178975
0.035382304 0.11683598 0.050159249
0.033513017 0.1168511 0.050143518
0.031652082 0.1169834 0.050005902
0.029783254 0.11700232 0.049986221
0.027914422 0.11701752 0.049970403
0.026046047 0.1170364 0.049950764
0.024177654 0.11705153 0.049935035
0.022309678 0.11707049 0.049915306
0.020460369 0.1174453 0.04952541
0.018631252 0.11826828 0.048669335
0.016877297 0.1208071 0.046028391
0.01508968 0.12289532 0.043856159
0.013264582 0.12434625 0.042346861
0.011438111 0.12597054 0.04065723
0.009593932 0.12734504 0.039227441
0.0077811871 0.12992616 0.036542486
0.0059107244 0.13103668 0.035387285
0.0040316358 0.13205202 0.034331102
0.0021470471 0.13307038 0.033271782
0.00025700795 0.13409571 0.032205202
-0.0016440906 0.13482486 0.031446729
-0.003548363 0.13560759 0.030632513
-0.0054478059 0.13711412 0.029065369
-0.0073649636 0.13767271 0.028484309
-0.0092852013 0.13823229 0.027902216
-0.011208543 0.13879271 0.027319264
-0.013135043 0.13932985 0.026760509
-0.01506427 0.13966541 0.026411444
-0.017000536 0.14122252 0.024791693
-0.039376017 0.1190896 0.04781498
-0.041152894 0.11672249 0.050277315
-0.043021724 0.1167679 0.050230082
-0.044892248 0.11683966 0.050155427
-0.046763416 0.11691159 0.050080605
-0.048635039 0.11697964 0.050009821
-0.050507516 0.11705153 0.049935039
-0.052380674 0.11712346 0.049860213
-0.054254524 0.11719535 0.049785431
-0.056133401 0.11733541 0.049639739
-0.058008883 0.11740738 0.049564868
0.044939362 0.12114859 0.04988173
0.04293878 0.11972342 0.051355258
0.041082103 0.11993653 0.051134922
0.039208837 0.11995166 0.051119283
0.037336204 0.11997076 0.051099528
0.035463843 0.11998979 0.051079862
0.033591479 0.120005 0.051064134
0.031731676 0.12019912 0.050863426
0.029859355 0.12021437 0.050847657
0.027987516 0.12023339 0.050827987
0.026115665 0.12024865 0.050812222
0.024244251 0.12026767 0.050792553
0.022372818 0.12028292 0.050776783
0.020502558 0.12031715 0.050741389
0.018653678 0.12078605 0.050256584
0.016853016 0.12234984 0.048639726
0.015066555 0.12443728 0.046481457
0.01325828 0.12627016 0.044586372
0.011432214 0.12789869 0.042902585
0.0095974952 0.12953518 0.041210566
0.0077849985 0.13214087 0.038516458
0.0059196898 0.13344137 0.037171826
0.0040408266 0.13450043 0.036076836
0.0021552951 0.13552293 0.03501964
0.00026422317 0.1365485 0.033959277
-0.0016323538 0.13758118 0.032891538
-0.003540141 0.13825536 0.032194499
-0.0054402356 0.13983341 0.0305629
-0.0073579564 0.14050795 0.029865474
-0.0092801889 0.14107034 0.029283999
-0.011205529 0.14163376 0.028701454
-0.013134003 0.14219798 0.028118094
-0.041275088 0.12178696 0.049221717
-0.043068886 0.11990993 0.051162437
-0.044942468 0.11998217 0.051087748
-0.046816502 0.12005068 0.051016919
-0.04869137 0.12012291 0.050942231
-0.050566908 0.12019531 0.050867371
-0.052443128 0.12026767 0.050792556
-0.054319818 0.12033626 0.050721642
0.041264553 0.12420861 0.050919291
0.03938511 0.12422404 0.050903443
0.037506279 0.12424316 0.050883789
0.035627443 0.1242585 0.050868027
0.033749178 0.12427771 0.05084829
0.031873804 0.12433541 0.050788991
0.030005766 0.12450452 0.050615195
0.028133987 0.12462379 0.050492626
0.026255852 0.12464295 0.050472934
0.024377706 0.12465847 0.050456997
0.022499969 0.12467767 0.05043726
0.020623194 0.12471226 0.050401714
0.018745555 0.12472764 0.050385907
0.016867721 0.12473533 0.050378006
0.015020256 0.12544021 0.049653608
0.013225726 0.12754445 0.047491141
0.011419996 0.12965794 0.045319147
0.0095865363 0.13130963 0.043621756
0.007797074 0.13461348 0.040226456
0.0059267958 0.13578427 0.039023273
0.0040538353 0.13709468 0.037676588
0.00217381 0.13841014 0.036324732
0.00027875858 0.13935284 0.035355922
-0.0016197928 0.14038673 0.034293421
-0.0035239721 0.14142382 0.033227634
-0.0054266383 0.14303605 0.031570785
-0.0073462073 0.14383277 0.030752014
-0.0092578297 0.14639798 0.028115802
-0.043205451 0.12512419 0.049978387
-0.045043215 0.12422783 0.050899561
0.039755106 0.13094994 0.048208598
0.037677485 0.12854381 0.050666377
0.035792425 0.12855932 0.05065053
0.033907931 0.12857871 0.050630722
0.032024752 0.12861361 0.050595071
0.030143261 0.12867187 0.050535567
0.028268829 0.12884271 0.05036106
0.026396796 0.12906405 0.050134972
0.024512313 0.12908356 0.050115034
0.022627797 0.12909907 0.05009919
0.020744678 0.1291379 0.050059535
0.018860467 0.12915342 0.050043691
0.016976604 0.12917289 0.050023798
0.0150927 0.12918848 0.050007869
0.013211438 0.1292662 0.049928475
0.011359506 0.13013043 0.049045708
0.0095653301 0.13278748 0.046331644
0.0077869045 0.13639322 0.042648517
0.0059319241 0.13806087 0.040945087
0.0040601874 0.13944007 0.039536279
0.0021796105 0.14076449 0.038183443
0.00029180761 0.14209004 0.036829457
-0.0016071294 0.14320195 0.035693679
-0.0035132254 0.14424431 0.03462895
0.036056422 0.13421933 0.04908042
0.034067735 0.13290817 0.050411616
0.032178301 0.13294348 0.050375775
0.030287743 0.13295911 0.05035989
0.028401107 0.13303362 0.050284259
0.026520461 0.13321 0.050105177
0.024638932 0.13338266 0.049929876
0.022756737 0.13355528 0.049754616
0.020866808 0.13359058 0.049718775
0.018976189 0.1336102 0.049698859
0.017085537 0.13362597 0.049682848
0.015195196 0.13364555 0.049662974
0.013304814 0.13366127 0.049647007
0.011412344 0.13361807 0.049690876
0.009534617 0.13398732 0.049315982
0.0077739502 0.13808367 0.04515703
0.0059224828 0.13983828 0.043375608
0.0040595527 0.14152171 0.041666459
0.0021875121 0.14320926 0.039953109
0.00029686588 0.14444694 0.038696527
-0.0015986997 0.14578663 0.037336372
-0.0035015855 0.14712752 0.035974983
0.032332599 0.13729808 0.050159041
0.030436002 0.13731793 0.050139014
0.028539382 0.13733374 0.050123055
0.026647709 0.13742873 0.050027199
0.024760533 0.13760686 0.049847431
0.022872467 0.13778119 0.049671512
0.020989802 0.1380745 0.049375523
0.019092537 0.13809434 0.049355499
0.017195411 0.13811411 0.049335558
0.015298247 0.13813005 0.049319468
0.013401378 0.13814989 0.049299441
0.011504456 0.13816576 0.049283437
0.0096077789 0.13818556 0.049263455
0.0077284756 0.1387493 0.048694551
0.0059023532 0.14124563 0.046175405
0.004054259 0.14342579 0.04397532
0.0021798047 0.14499214 0.042394653
0.00029956418 0.14669149 0.040679771
-0.0015568923 0.15023044 0.037108466
0.032410279 0.14053319 0.051092852
0.030510508 0.14055315 0.051072847
0.028610714 0.14056905 0.051056892
0.026711632 0.14059295 0.051032916
0.024821512 0.14077218 0.050853141
0.022930495 0.14094754 0.050677247
0.021047954 0.14130256 0.050321158
0.019151013 0.14139433 0.050229095
0.017250556 0.14141437 0.050209004
0.015350044 0.14143027 0.050193049
0.013449833 0.14145027 0.050173
0.011549721 0.14147021 0.050152991
0.0096495524 0.14148612 0.050137036
0.0077516343 0.14157008 0.050052825
0.0058863238 0.14279035 0.04882884
0.0040396657 0.14497367 0.046638902
0.0021814199 0.14717072 0.044435162
0.0002961912 0.14864326 0.042958166
0.030768398 0.14663197 0.049185582
0.028754093 0.14497536 0.050837167
0.026848406 0.1449955 0.050817095
0.024944045 0.14503559 0.050777115
0.023047321 0.14521669 0.05059658
0.021158691 0.14557096 0.050243378
0.019260056 0.1457523 0.050062589
0.017361414 0.14594984 0.049865641
0.015454361 0.14597002 0.049845524
0.013547262 0.14598618 0.049829409
0.011640431 0.14600632 0.049809333
0.0097336825 0.14602642 0.049789302
0.0078275204 0.14606281 0.049753029
0.0059184097 0.14599821 0.049817413
0.004017394 0.14622413 0.049592186
0.0021552967 0.14816274 0.047659446
0.00027018611 0.14949639 0.046329834
0.026986331 0.14943159 0.050595958
0.025074203 0.14944789 0.050579805
0.023164667 0.14950882 0.050519433
0.021270338 0.14987051 0.050161012
0.019365523 0.15004943 0.049983706
0.017460167 0.15023255 0.049802251
0.015553879 0.1504117 0.049624741
0.013645539 0.15055826 0.049479492
0.011731936 0.15057872 0.049459226
0.0098182745 0.15059498 0.049443118
0.0079053491 0.15063173 0.0494067
0.0059919176 0.15065201 0.049386606
0.0040785302 0.15067241 0.049366381
0.0021649753 0.15068461 0.0493543
0.025352869 0.15652391 0.047786724
0.023288224 0.15393075 0.050340865
0.021382485 0.15419328 0.050082289
0.019471854 0.15437801 0.049900338
0.017560288 0.15455875 0.049722321
0.015648147 0.15474364 0.049540207
0.013735066 0.15492454 0.049362022
0.011821209 0.15510558 0.049183711
0.0099036088 0.15520024 0.049090479
0.021495342 0.15854366 0.050003126
0.019578665 0.1587301 0.049820609
