# .PCD v0.7 - Point Cloud Data file format
VERSION 0.7
FIELDS x y z
SIZE 4 4 4
TYPE F F F
COUNT 1 1 1
WIDTH 206
HEIGHT 1
VIEWPOINT 0 0 0 1 0 0 0
POINTS 206
DATA ascii
0.12311316 -0.02256795 0.006117186
0.12664087 -0.020700043 0.0082118418
0.12453038 -0.021964954 0.0099719791
0.12250733 -0.022931043 0.011316296
0.128126 -0.019825369 0.011673489
0.12598714 -0.021195151 0.013567389
0.1238503 -0.022596417 0.015504828
0.12176502 -0.023839464 0.017223524
0.12984656 -0.018072186 0.013904531
0.12735294 -0.020749025 0.017582087
0.12525688 -0.021998921 0.019299245
0.12317324 -0.023237417 0.021000747
0.12107369 -0.024573702 0.022836599
0.12944576 -0.017599549 0.017875776
0.12700465 -0.020108486 0.021300778
0.12491603 -0.021351302 0.022997368
0.12282899 -0.022623904 0.02473464
0.12088721 -0.023369756 0.025752803
0.13084501 -0.017014435 0.021664556
0.12874053 -0.018267291 0.023364002
0.12640843 -0.020409266 0.026269533
0.12449662 -0.021013325 0.027088942
0.12271415 -0.021139417 0.027259985
0.12101664 -0.020942001 0.026992183
0.13223977 -0.016428592 0.025424814
0.13020182 -0.017438725 0.026786368
0.128299 -0.017975559 0.027509976
0.12655739 -0.017923033 0.027439181
0.12482743 -0.017829077 0.02731254
0.12309796 -0.017734911 0.027185604
0.1213689 -0.017640954 0.027058963
0.11963959 -0.017549548 0.026935758
0.11791144 -0.017455339 0.02680878
0.13216166 -0.014781849 0.027737051
0.13037018 -0.014890557 0.02788266
0.12863514 -0.014795716 0.027755639
0.1269256 -0.014606192 0.027501779
0.12519047 -0.014514122 0.027378477
0.12345652 -0.014419176 0.027251311
0.12172301 -0.014324345 0.02712428
0.11998995 -0.014229325 0.026997017
0.11825734 -0.014134273 0.026869701
0.11654839 -0.013944233 0.026615176
0.11481623 -0.013849149 0.026487809
0.11308448 -0.013753982 0.026360357
0.1113531 -0.013658825 0.026232895
0.1291028 -0.011115906 0.027353104
0.12729502 -0.011276369 0.027566651
0.12555611 -0.011180717 0.027439347
0.12381769 -0.011084917 0.027311852
0.12207971 -0.010989191 0.027184453
0.12034216 -0.01089336 0.027056906
0.11860505 -0.010797454 0.026929265
0.11689173 -0.010605728 0.026674066
0.11515511 -0.010509782 0.026546381
0.11341885 -0.010413771 0.026418593
0.11168296 -0.010317834 0.026290899
0.10994678 -0.010224605 0.026166817
0.10821158 -0.010128552 0.026038988
0.10649832 -0.0099362358 0.025783028
0.12748082 -0.0086368276 0.028564066
0.12573966 -0.0085405745 0.028436773
0.12399899 -0.0084441798 0.028309284
0.12225876 -0.0083478214 0.028181842
0.12051895 -0.0082514258 0.028054353
0.11877959 -0.0081549576 0.027926769
0.11706408 -0.0079619875 0.027671549
0.11532519 -0.007865482 0.027543917
0.11358669 -0.007768908 0.027416186
0.11184853 -0.0076723336 0.027288456
0.1101101 -0.0075785145 0.027164375
0.10837265 -0.0074818297 0.027036501
0.10665719 -0.0072883125 0.026780564
0.10492005 -0.0071915905 0.026652643
0.10318325 -0.0070947213 0.026524533
0.066989683 -0.0034734898 0.021735193
0.12619475 -0.0048469356 0.028057592
0.12436303 -0.0050842748 0.028369511
0.12261827 -0.0049871318 0.028241841
0.12087394 -0.0048898463 0.028113978
0.11913004 -0.0047925184 0.027986074
0.11741013 -0.0045978739 0.027730253
0.11566671 -0.0045004776 0.027602248
0.11392301 -0.0044059213 0.027477978
0.11218036 -0.0043083774 0.027349783
0.11043805 -0.0042109075 0.027221683
0.10869608 -0.0041133324 0.027093435
0.10697619 -0.0039181714 0.02683695
0.10523453 -0.0038205222 0.026708608
0.10349318 -0.0037228363 0.026580218
0.10175211 -0.0036251452 0.026451834
0.10001132 -0.0035273486 0.026323302
0.098270774 -0.0034295521 0.02619477
0.068754405 -0.0014490971 0.023591924
0.067280747 0.00043785869 0.021111961
0.1230609 -0.0012868071 0.027878113
0.12123079 -0.0015120502 0.028172288
0.11948236 -0.0014138268 0.028044013
0.11775804 -0.0012174278 0.027787503
0.11601008 -0.0011191677 0.027659182
0.11426178 -0.0010238367 0.027534675
0.11251458 -0.00092547113 0.027406206
0.11076773 -0.0008271056 0.027277736
0.10902121 -0.00072866632 0.027149172
0.10729687 -0.00053178781 0.026892046
0.10555065 -0.00043331165 0.026763435
0.10380475 -0.00033473011 0.026634676
0.10205913 -0.00023614329 0.026505923
0.10031378 -0.00013748273 0.026377074
0.098568656 -3.8864306e-05 0.026248269
0.096843205 0.00015567502 0.025994197
0.09509825 0.00025437245 0.025865301
0.093353532 0.00035317527 0.025736259
0.091609567 0.00045493891 0.025603348
0.11991257 0.0022929884 0.027696049
0.11810707 0.0021763681 0.027847398
0.11635452 0.0022754187 0.027718855
0.11460238 0.002374643 0.027590064
0.1128506 0.0024739094 0.027461233
0.11109916 0.002573102 0.027332494
0.10934807 0.0026724422 0.027203567
0.10761926 0.0028710486 0.026945809
0.10586847 0.0029704259 0.026816834
0.10411799 0.0030698767 0.026687764
0.10236777 0.0031692854 0.026558736
0.10061723 0.0032659122 0.026433334
0.09886755 0.0033654738 0.026304122
0.097138219 0.0035646651 0.0260456
0.095388681 0.0036642633 0.02591634
0.093639947 0.0037668645 0.025783172
0.091890812 0.0038665736 0.02565377
0.090142421 0.0039692856 0.025520461
0.088393614 0.0040690261 0.025391007
0.08666376 0.0042716311 0.025128057
0.11853131 0.0058926875 0.027511381
0.11670152 0.0056895874 0.027773328
0.11494478 0.0057896809 0.027644228
0.11318839 0.0058897431 0.027515179
0.11143235 0.0059898733 0.02738603
0.10967666 0.0060900827 0.027256792
0.10794337 0.0062904595 0.026998358
0.10618798 0.0063907374 0.026869021
0.1044329 0.0064910892 0.026739588
0.10267746 0.0065885009 0.026613958
0.10092293 0.0066888896 0.026484478
0.099168628 0.0067892834 0.026355004
0.097434789 0.0069902083 0.026095852
0.09568122 0.0070936577 0.025962437
0.093927301 0.0071942676 0.025832672
0.09217412 0.0072977906 0.025699161
0.090420544 0.0073984745 0.025569301
0.088667668 0.0075020292 0.025435738
0.086933292 0.0077064941 0.025172036
0.08517985 0.0078073251 0.025041986
0.083426513 0.0079080826 0.024912033
0.081938557 0.0095472094 0.022797983
0.11535668 0.0095125018 0.027324067
0.11352801 0.0093223928 0.027567735
0.11176733 0.0094233556 0.027438322
0.110007 0.0095244348 0.027308775
0.10826924 0.0097266976 0.027049528
0.10650919 0.0098277396 0.026920028
0.10474885 0.0099260835 0.026793983
0.10298941 0.01002731 0.026664244
0.10123023 0.010128536 0.026534505
0.099471323 0.010229905 0.026404573
0.097733557 0.010435607 0.026140928
0.095974758 0.010536982 0.026010999
0.094216779 0.010641458 0.025877094
0.092458382 0.010742943 0.025747024
0.090700731 0.010847488 0.025613017
0.088942647 0.010948973 0.025482947
0.087463647 0.0125883 0.023381826
0.11376337 0.012307703 0.028210437
0.1119355 0.012125307 0.028442767
0.11017285 0.01222696 0.028313285
0.1084328 0.012430418 0.028054141
0.10667044 0.012532145 0.027924566
0.10490777 0.012631059 0.027798584
0.10314601 0.012732896 0.027668865
0.10138452 0.012834849 0.027539011
0.099623263 0.01293676 0.0274092
0.097883224 0.013143706 0.027145619
0.096122108 0.013245765 0.027015615
0.094361804 0.013350906 0.0268817
0.092601076 0.013452969 0.026751703
0.0908411 0.013558184 0.026617693
0.089256823 0.014618066 0.025267702
0.11056596 0.015960323 0.028021539
0.10876125 0.015893919 0.0281056
0.10699361 0.01599366 0.02797935
0.10522689 0.01609634 0.02784938
0.10346047 0.016199095 0.027719313
0.10169432 0.01630196 0.027589107
0.099929005 0.016407838 0.027455086
0.098184399 0.016616618 0.027190808
0.096418604 0.016719598 0.027060464
0.094856642 0.017878983 0.025592921
0.1091478 0.019633777 0.027829958
0.10731915 0.019475343 0.028029265
0.10554774 0.019578904 0.027898995
0.10377663 0.01968261 0.027768536
0.10200639 0.019789342 0.02763427
0.10023579 0.019893203 0.027503626
0.10592274 0.023328166 0.027635876
0.10435513 0.024441717 0.026243797
