# .PCD v0.7 - Point Cloud Data file format
VERSION 0.7
FIELDS x y z
SIZE 4 4 4
TYPE F F F
COUNT 1 1 1
WIDTH 600
HEIGHT 1
VIEWPOINT 0 0 0 1 0 0 0
POINTS 600
DATA ascii
-0.0027731259 -0.18994913 0.0016092832
-0.004305067 -0.19073468 0.0032345294
-0.0058119246 -0.19072975 0.0032242876
-0.0073161433 -0.19058706 0.0029290703
-0.0088225817 -0.19051647 0.0027830314
-0.010329576 -0.19044586 0.0026369295
-0.011831657 -0.18951045 0.00070171442
-0.013343648 -0.18953192 0.00074615836
-0.002792404 -0.18869728 0.0047281496
-0.004338637 -0.19010417 0.0076163686
-0.0058392724 -0.19005345 0.0075122449
-0.0073391548 -0.18994363 0.0072868224
-0.0088407034 -0.18988793 0.0071724993
-0.010341336 -0.18970425 0.0067953691
-0.011844198 -0.1896337 0.0066505526
-0.013347635 -0.18956307 0.0065055676
-0.01485166 -0.18949245 0.0063605611
-0.016356297 -0.18942018 0.0062122256
-0.017862281 -0.18927881 0.0059219394
-0.01936847 -0.18920639 0.0057733296
-0.020875275 -0.18913566 0.0056281127
-0.022382729 -0.1890648 0.0054826639
-0.023890885 -0.1889924 0.0053339698
-0.025399674 -0.18892154 0.005188521
-0.026909145 -0.18885066 0.0050430303
-0.028422205 -0.18870719 0.0047485083
-0.029933384 -0.18863623 0.0046028276
-0.031445358 -0.18856357 0.0044536279
-0.03295799 -0.18849255 0.0043078419
-0.034471363 -0.18842152 0.004161993
-0.035985999 -0.18834215 0.0039990954
-0.037505884 -0.18819496 0.0036969236
-0.039022144 -0.18812045 0.0035439937
-0.040539216 -0.18804601 0.0033911061
-0.042056996 -0.18797307 0.0032414217
-0.043575734 -0.18789856 0.0030884286
-0.045095332 -0.18782394 0.0029352037
-0.046615791 -0.1877493 0.002782
-0.048144042 -0.18760163 0.0024788589
-0.049749833 -0.18668458 0.00059617998
-0.0028341736 -0.18817285 0.0092977528
-0.0043567619 -0.18892199 0.010823954
-0.0058544991 -0.18886627 0.010710411
-0.0073516215 -0.18875633 0.010486463
-0.0088504031 -0.18870048 0.010372709
-0.010349611 -0.18864468 0.010258997
-0.011849257 -0.18858884 0.010145242
-0.013349358 -0.18853466 0.010034882
-0.014849909 -0.18847877 0.0099210003
-0.016350932 -0.18842286 0.0098071406
-0.017853009 -0.18831266 0.0095826034
-0.019355239 -0.18825679 0.0094688069
-0.02085798 -0.18820082 0.0093547581
-0.022361241 -0.1881448 0.0092406664
-0.023865031 -0.18808883 0.0091266166
-0.025369314 -0.18803446 0.0090158554
-0.026874196 -0.18797845 0.0089017637
-0.0283818 -0.18786801 0.0086767841
-0.029888056 -0.1878119 0.0085624605
-0.031394899 -0.18775581 0.0084482003
-0.032902341 -0.18769974 0.0083339196
-0.034410309 -0.1876452 0.0082228202
-0.035918985 -0.18758908 0.0081084976
-0.037431829 -0.18747839 0.0078830114
-0.03894202 -0.18742219 0.0077685197
-0.040452868 -0.18736595 0.0076539856
-0.041964393 -0.1873097 0.0075393673
-0.043476462 -0.18725514 0.0074282051
-0.044989355 -0.18719888 0.0073136082
-0.046502955 -0.18714257 0.0071988842
-0.048034437 -0.186904 0.0067128679
-0.049552541 -0.18682438 0.006550645
-0.051188145 -0.18560775 0.0040720934
-0.0028472203 -0.18674536 0.011988724
-0.0043698451 -0.18756406 0.013643873
-0.0058658351 -0.18751964 0.0135541
-0.0073613026 -0.18743086 0.013374575
-0.0088581275 -0.18738812 0.013288175
-0.01035525 -0.18734366 0.013198275
-0.011852714 -0.18729922 0.013108503
-0.013350531 -0.1872548 0.013018645
-0.014848708 -0.18721201 0.012932139
-0.016347257 -0.1871675 0.012842198
-0.017846657 -0.18707857 0.0126624
-0.019346153 -0.18703571 0.012575704
-0.020846078 -0.18699117 0.012485699
-0.022346424 -0.18694669 0.012395737
-0.023847159 -0.1869038 0.012309062
-0.025348376 -0.18685925 0.012218994
-0.02685005 -0.18681468 0.012128863
-0.028353883 -0.18672723 0.011952057
-0.029856684 -0.18668264 0.011861947
-0.031359974 -0.18663807 0.011771817
-0.032863766 -0.18659343 0.01168158
-0.034372903 -0.18646285 0.011417593
-0.035878696 -0.18640827 0.011307211
-0.037388843 -0.18629575 0.011079765
-0.038896244 -0.18623942 0.010965906
-0.040404178 -0.18618479 0.010855481
-0.041912898 -0.18612851 0.010741663
-0.043422304 -0.18607216 0.010627741
-0.044932395 -0.18601587 0.010513923
-0.046443049 -0.18596111 0.010403224
-0.047959846 -0.18584833 0.01017521
-0.049472161 -0.18579358 0.01006449
-0.051111948 -0.18449606 0.0074413335
-0.0028652719 -0.18548715 0.014995184
-0.0043792557 -0.1860783 0.016181281
-0.0058740256 -0.18604366 0.016111802
-0.0073683462 -0.18597279 0.015969578
-0.0088637257 -0.18593813 0.015900057
-0.010358619 -0.18583252 0.015688142
-0.011854745 -0.18578959 0.015602015
-0.013351209 -0.18574497 0.015512517
-0.014848035 -0.18570037 0.015423018
-0.016345225 -0.18565744 0.015336891
-0.017843267 -0.18556817 0.015157767
-0.01934143 -0.18552355 0.015068267
-0.020839972 -0.18548059 0.014982014
-0.022338962 -0.18543583 0.014892242
-0.02383838 -0.18539117 0.014802616
-0.025338244 -0.18534651 0.014713076
-0.026838506 -0.18530346 0.014626654
-0.028341042 -0.18521401 0.014447213
-0.029842485 -0.18516929 0.014357483
-0.031344339 -0.1851262 0.014271019
-0.032846767 -0.18508148 0.014181288
-0.03434971 -0.1850367 0.014091452
-0.035853077 -0.18499358 0.014004924
-0.037359953 -0.18490393 0.013825084
-0.038864683 -0.1848592 0.013735291
-0.04036985 -0.18481602 0.013648658
-0.041875705 -0.1847712 0.01355878
-0.043382149 -0.18472631 0.013468712
-0.044889182 -0.18468149 0.01337875
-0.046396673 -0.18463828 0.013292054
-0.047909103 -0.18454857 0.013112107
-0.049428053 -0.18440215 0.012818344
-0.051054243 -0.18321353 0.010433506
-0.0011023408 -0.17609057 0.0017676657
-0.0028725071 -0.18388835 0.017294632
-0.0043808073 -0.18430623 0.018126737
-0.0058753416 -0.18427154 0.018057657
-0.0073694205 -0.18420018 0.01791558
-0.008864562 -0.18416543 0.017846398
-0.01035995 -0.18413061 0.017777044
-0.011855596 -0.18409576 0.017707629
-0.013351512 -0.18406096 0.017638318
-0.01484771 -0.18402612 0.017568966
-0.01634421 -0.18398963 0.017496305
-0.017841369 -0.18391991 0.017357472
-0.01933863 -0.18388501 0.017288016
-0.020836217 -0.18385015 0.017218599
-0.022334181 -0.18381362 0.017145813
-0.023832463 -0.18377872 0.017076354
-0.025331106 -0.18374386 0.017006937
-0.026830122 -0.18370897 0.016937481
-0.02833095 -0.1836375 0.016795171
-0.029830901 -0.18360253 0.016725546
-0.031331252 -0.18356763 0.016656002
-0.032832023 -0.18353273 0.016586546
-0.034333229 -0.18349777 0.016516898
-0.035834972 -0.1834612 0.016444132
-0.037339311 -0.1833912 0.016304752
-0.038842026 -0.1833563 0.01623521
-0.040345214 -0.18332133 0.016165582
-0.041849021 -0.1832847 0.016092626
-0.043353211 -0.18324965 0.016022895
-0.044857904 -0.18321469 0.015953247
-0.046363119 -0.18317975 0.015883662
-0.047878459 -0.18304133 0.015608107
-0.04939618 -0.18289277 0.015312278
-0.050996546 -0.18194044 0.013415986
-0.0011188147 -0.17469616 0.0045697773
-0.0028746098 -0.18212859 0.019258041
-0.0043796995 -0.18243858 0.019870646
-0.0058745896 -0.18241195 0.019818027
-0.0073691132 -0.18235695 0.01970933
-0.0088644186 -0.18232866 0.019653421
-0.010359933 -0.18230198 0.019600697
-0.011855637 -0.18227533 0.019548034
-0.013351539 -0.18224698 0.019492
-0.014847665 -0.18222032 0.019439338
-0.016344026 -0.18219197 0.019383304
-0.017840771 -0.18215029 0.019300906
-0.019337792 -0.18211523 0.019231617
-0.020835139 -0.18208022 0.019162433
-0.022332825 -0.18204518 0.019093206
-0.023830906 -0.18200845 0.01902061
-0.025329309 -0.18197343 0.018951362
-0.026828086 -0.18193832 0.018882031
-0.028328609 -0.1818682 0.018743429
-0.029828312 -0.18183312 0.018674077
-0.031328492 -0.1817964 0.018601542
-0.032829028 -0.18176125 0.018532084
-0.034329992 -0.18172613 0.01846269
-0.035831396 -0.18169104 0.018393338
-0.03733559 -0.18161915 0.018251281
-0.038838066 -0.181584 0.018181823
-0.040341012 -0.18154885 0.018112365
-0.04184445 -0.18151377 0.018043013
-0.043348391 -0.18147857 0.017973429
-0.044852976 -0.18144174 0.017900683
-0.046357952 -0.1814066 0.017831204
-0.047866713 -0.18133624 0.017692184
-0.049374856 -0.18128093 0.017582875
-0.050959826 -0.18046802 0.015976384
-0.0013336153 -0.17903268 0.018587863
-0.0028716871 -0.18020885 0.020894814
-0.004375041 -0.18044013 0.021348493
-0.0058706473 -0.18041335 0.021295957
-0.0073658875 -0.18035807 0.021187535
-0.0088619078 -0.18032955 0.021131596
-0.010358139 -0.18030271 0.021078944
-0.01185456 -0.18027589 0.021026354
-0.013351181 -0.18024737 0.020970415
-0.014848024 -0.18022056 0.020917816
-0.0163451 -0.18019207 0.02086194
-0.017842686 -0.18013836 0.020756584
-0.019340377 -0.1801098 0.020700593
-0.020838309 -0.18008293 0.020647887
-0.02233655 -0.18005444 0.020592
-0.023835041 -0.18002757 0.020539297
-0.025333825 -0.18000071 0.020486591
-0.026832972 -0.17997219 0.020430652
-0.028333489 -0.17991674 0.020321893
-0.029833347 -0.17988984 0.020269135
-0.031333614 -0.17986129 0.020213133
-0.032834165 -0.17983444 0.020160491
-0.034335081 -0.1798075 0.020107618
-0.035836462 -0.17977895 0.020051615
-0.037339944 -0.17972347 0.019942803
-0.038842142 -0.17969652 0.01988994
-0.040344853 -0.17966796 0.019833937
-0.041847881 -0.17964098 0.019781023
-0.043351334 -0.1796141 0.019728318
-0.044855375 -0.17958544 0.019672094
-0.046359725 -0.17955858 0.019619389
-0.047867175 -0.17950305 0.019510461
-0.049414456 -0.17903943 0.018601101
-0.051035728 -0.17787616 0.016319375
-0.0013294595 -0.17708524 0.020180181
-0.0028653231 -0.17817858 0.022308724
-0.0043666866 -0.17830338 0.022551689
-0.0058637271 -0.17828315 0.022512315
-0.0073605012 -0.17824271 0.022433573
-0.0088578146 -0.17822078 0.022390857
-0.010355283 -0.17820051 0.022351429
-0.011852887 -0.17818026 0.022312002
-0.013350639 -0.17816004 0.022272637
-0.01484855 -0.17813979 0.022233209
-0.01634663 -0.17811951 0.022193728
-0.017845098 -0.17807898 0.022114808
-0.019342892 -0.17811108 0.02217729
-0.020841543 -0.17808406 0.022124723
-0.022340504 -0.17805535 0.022068815
-0.023839716 -0.17802835 0.022016248
-0.02533927 -0.17799965 0.021960393
-0.026839087 -0.17797261 0.021907762
-0.028340323 -0.17791684 0.021799169
-0.029840901 -0.17788978 0.021746486
-0.031341892 -0.17786109 0.021690631
-0.032843165 -0.177834 0.021637896
-0.034344796 -0.17780699 0.021585329
-0.035846908 -0.1777782 0.021529241
-0.037351009 -0.17772411 0.021423938
-0.038854025 -0.17769538 0.021368029
-0.040357344 -0.17766827 0.02131523
-0.041861214 -0.17763948 0.021259207
-0.043365393 -0.17761239 0.02120647
-0.044870153 -0.17758362 0.021150447
-0.046375234 -0.17755656 0.021097774
-0.047883414 -0.17750067 0.020988951
-0.049416237 -0.17719388 0.020391688
-0.05107465 -0.17565216 0.017390231
-0.0013170959 -0.17490105 0.021307999
-0.0028508753 -0.17588289 0.023205303
-0.0043562697 -0.17608848 0.023602579
-0.0058549121 -0.17606813 0.023563245
-0.0073532867 -0.17602733 0.023484431
-0.0088522267 -0.17600696 0.023445046
-0.010351274 -0.17598487 0.023402382
-0.011850481 -0.17596447 0.023362942
-0.013349837 -0.17594409 0.023323556
-0.014849351 -0.17592371 0.023284182
-0.016349036 -0.17590329 0.023244742
-0.017849108 -0.17586251 0.023165917
-0.019349273 -0.17584041 0.023123201
-0.020849627 -0.17581996 0.023083709
-0.022350198 -0.17579955 0.023044271
-0.023850992 -0.17577921 0.023004938
-0.025352029 -0.17575879 0.022965498
-0.026853317 -0.17573833 0.022925945
-0.028355645 -0.17569751 0.022847066
-0.02985755 -0.17567711 0.022807628
-0.031359736 -0.17565663 0.022768084
-0.03286222 -0.17563622 0.022728644
-0.03436501 -0.17561582 0.022689207
-0.03586822 -0.17559361 0.022646321
-0.037372947 -0.17555277 0.022567391
-0.03887682 -0.17553234 0.022527888
-0.04038104 -0.1755119 0.022488397
-0.041885629 -0.17549148 0.022448959
-0.043390598 -0.17547101 0.022409415
-0.044895951 -0.17545055 0.02236986
-0.046401709 -0.17543006 0.022330252
-0.047909729 -0.1753892 0.022251321
-0.049431939 -0.17520504 0.021895424
-0.0013045919 -0.17271267 0.022427872
-0.0028363911 -0.17358477 0.02410068
-0.0043415865 -0.17370981 0.024340475
-0.0058426363 -0.17369607 0.024314165
-0.0073435204 -0.17367043 0.024264958
-0.0088447249 -0.17365667 0.024238585
-0.010346001 -0.17364301 0.024212381
-0.011847358 -0.17362933 0.024186112
-0.013348809 -0.17361562 0.024159854
-0.01485036 -0.17360367 0.024136916
-0.016352024 -0.17358992 0.024110543
-0.017853953 -0.17356253 0.024058018
-0.019355938 -0.17354882 0.024031697
-0.020858072 -0.17353509 0.024005376
-0.022360368 -0.17352143 0.023979172
-0.023861449 -0.17356083 0.024054741
-0.025364095 -0.17354026 0.024015293
-0.026866993 -0.1735197 0.023975842
-0.028370934 -0.17347856 0.023896944
-0.02987452 -0.17345633 0.02385428
-0.031378329 -0.17343572 0.023814779
-0.03288243 -0.17341515 0.02377533
-0.03438684 -0.17339459 0.023735879
-0.035891574 -0.17337397 0.023696315
-0.037397917 -0.17333283 0.023617415
-0.03890352 -0.17331053 0.023574637
-0.040409364 -0.17328991 0.023535082
-0.041915577 -0.17326936 0.023495685
-0.043422166 -0.17324877 0.023456182
-0.044929143 -0.17322817 0.02341667
-0.046436526 -0.17320755 0.023377115
-0.047946174 -0.17316641 0.023298217
-0.049483366 -0.17283991 0.022671947
-0.0013093489 -0.17103215 0.02451494
-0.0028218706 -0.17128429 0.024994982
-0.0043253773 -0.17127044 0.02496862
-0.0058289585 -0.17125836 0.024945628
-0.0073322966 -0.17123076 0.024893072
-0.0088359946 -0.17121692 0.024866709
-0.010339765 -0.17120312 0.024840461
-0.011843626 -0.17119101 0.024817418
-0.013347564 -0.17117719 0.024791108
-0.014851606 -0.17116342 0.024764851
-0.016355766 -0.17114963 0.024738604
-0.017860191 -0.17112197 0.02468593
-0.019364646 -0.17110991 0.024663003
-0.02086927 -0.17109607 0.024636641
-0.022374056 -0.17108223 0.024610277
-0.023879016 -0.1710684 0.024583967
-0.02538416 -0.17105459 0.024557658
-0.026889501 -0.17104077 0.024531359
-0.028395504 -0.17101488 0.024482056
-0.02990132 -0.17100103 0.024455694
-0.031407367 -0.17098719 0.024429331
-0.032913651 -0.17097338 0.024403021
-0.034420192 -0.17095953 0.024376659
-0.035926901 -0.17094742 0.024353614
-0.037434828 -0.17091985 0.02430111
-0.038942244 -0.17090601 0.024274748
-0.040449962 -0.17089216 0.024248384
-0.041957993 -0.17087825 0.024221916
-0.043466341 -0.17086446 0.02419566
-0.044974882 -0.17085236 0.024172615
-0.046483904 -0.17083852 0.024146253
-0.047994528 -0.17081088 0.024093643
-0.049538523 -0.17043331 0.023374723
-0.0012779714 -0.16828801 0.024577875
-0.0027963012 -0.16861229 0.025190774
-0.0043034428 -0.16860706 0.025180912
-0.0058105118 -0.16860008 0.025167732
-0.0073174825 -0.16858792 0.025144739
-0.0088245925 -0.16858263 0.025134772
-0.010331688 -0.1685757 0.025121644
-0.011838822 -0.16857047 0.025111781
-0.013345975 -0.16856349 0.025098547
-0.014853176 -0.16855828 0.025088739
-0.016360434 -0.1685513 0.025075505
-0.017867817 -0.16853912 0.025052523
-0.019375227 -0.16853388 0.025042597
-0.020882752 -0.16852692 0.025029417
-0.022390345 -0.16852169 0.025019554
-0.023898043 -0.16851644 0.025009628
-0.025405906 -0.16850953 0.024996564
-0.026913855 -0.16850428 0.024986638
-0.028422201 -0.16849208 0.024963604
-0.029930541 -0.16848508 0.02495037
-0.031438973 -0.16847986 0.024940498
-0.032944892 -0.16852866 0.025032725
-0.034453936 -0.16851468 0.02500632
-0.035963241 -0.1685008 0.024980085
-0.03747369 -0.16847284 0.024927212
-0.038983621 -0.16845891 0.024900923
-0.040493723 -0.16844675 0.024877932
-0.042004261 -0.16843276 0.024851473
-0.04351512 -0.16841881 0.024825122
-0.045026306 -0.16840491 0.024798822
-0.046537843 -0.16839096 0.02477248
-0.048050832 -0.16836479 0.024723032
-0.049593039 -0.16803133 0.024092756
0.00073351344 -0.15310748 0.0013225861
-0.0012463836 -0.16553214 0.024634572
-0.0027665433 -0.16579443 0.025126711
-0.0042779669 -0.16580144 0.02513985
-0.0057892622 -0.1658085 0.025153104
-0.007300721 -0.16583136 0.02519599
-0.0088116545 -0.1658331 0.025199298
-0.010323143 -0.16589642 0.025318068
-0.011833683 -0.16588938 0.025304865
-0.013344266 -0.16588411 0.025294973
-0.014854888 -0.16587707 0.02528177
-0.01636556 -0.1658718 0.025271876
-0.017876361 -0.16585954 0.025248894
-0.019387215 -0.16585249 0.02523564
-0.020898135 -0.16584718 0.025225682
-0.022409186 -0.16584018 0.025212543
-0.023920311 -0.16583486 0.025202597
-0.025431605 -0.16582781 0.025189342
-0.02694298 -0.16582255 0.025179502
-0.028454755 -0.16581029 0.025156457
-0.029966449 -0.16580497 0.02514651
-0.031478383 -0.16579795 0.025133308
-0.032990418 -0.16579266 0.025123414
-0.034502733 -0.16578564 0.025110211
-0.036015157 -0.16578032 0.025100265
-0.037528221 -0.16576801 0.02507717
-0.039041217 -0.16576098 0.025063977
-0.04055433 -0.16575575 0.025054125
-0.042067822 -0.16574867 0.02504088
-0.043581445 -0.16574337 0.025030924
-0.045095332 -0.16573809 0.02502103
-0.046609644 -0.16573107 0.025007827
-0.048140116 -0.16554616 0.024660917
-0.04978532 -0.16414763 0.022036875
0.00077212532 -0.1501985 0.0012795847
-0.0011926061 -0.16210833 0.023463193
-0.002731055 -0.16277651 0.024707802
-0.0042472146 -0.1627837 0.024721183
-0.0057632411 -0.16279081 0.024734396
-0.007279308 -0.16280681 0.024764236
-0.0087950733 -0.1628139 0.024777459
-0.010310742 -0.16282104 0.024790725
-0.011826325 -0.16282816 0.024804002
-0.013341837 -0.16283527 0.024817215
-0.014857285 -0.16284235 0.024830438
-0.016372684 -0.16284947 0.024843715
-0.017887956 -0.16286545 0.024873439
-0.019403253 -0.16287263 0.02488682
-0.020918535 -0.16287972 0.024900045
-0.022433814 -0.16288678 0.024913205
-0.023948733 -0.16290817 0.024953023
-0.025464084 -0.16291173 0.024959661
-0.026979556 -0.16291347 0.024962896
-0.028494975 -0.16291879 0.024972823
-0.030010607 -0.16292062 0.024976226
-0.031526268 -0.16292419 0.024982864
-0.033042118 -0.16292596 0.024986152
-0.034558006 -0.16292952 0.02499279
-0.036074124 -0.16293125 0.024996024
-0.037590176 -0.16293658 0.02500595
-0.039106477 -0.16294014 0.025012588
-0.040623065 -0.16294192 0.025015876
-0.042139709 -0.16294548 0.025022514
-0.043656673 -0.1629473 0.025025917
-0.045173705 -0.16295086 0.025032556
-0.046691101 -0.16295257 0.025035737
-0.048234288 -0.16266626 0.024502454
0.00040535355 -0.15816119 0.021357873
-0.001156506 -0.15920281 0.023283985
-0.0026889944 -0.15952721 0.023883861
-0.0042109005 -0.15953982 0.023907168
-0.0057326313 -0.15955235 0.023930369
-0.0072543933 -0.15957582 0.02397375
-0.0087757688 -0.15958835 0.023996951
-0.010296988 -0.15959916 0.024016919
-0.011818104 -0.15961176 0.024040215
-0.013339105 -0.15962437 0.024063522
-0.014860005 -0.15963517 0.02408349
-0.016380815 -0.15964778 0.024106797
-0.017901508 -0.15966401 0.024136838
-0.019422079 -0.15968198 0.024170039
-0.02094258 -0.15969814 0.024199974
-0.022463005 -0.15971433 0.024229897
-0.023983369 -0.15973051 0.024259822
-0.025503626 -0.15974854 0.02429314
-0.027023891 -0.15976465 0.024322959
-0.028543519 -0.15979706 0.024382859
-0.030063599 -0.15981504 0.024416124
-0.031583738 -0.15983123 0.024446048
-0.033100624 -0.15991388 0.024598906
-0.034621 -0.15992108 0.024612192
-0.036141478 -0.15992826 0.024625489
-0.037661519 -0.15994444 0.024655413
-0.039182194 -0.15995164 0.02466871
-0.040703002 -0.15995881 0.024681944
-0.042223174 -0.1599768 0.024715209
-0.043744519 -0.15998037 0.024721827
-0.045266204 -0.15998214 0.024725115
-0.046787959 -0.15998572 0.024731731
-0.048331678 -0.15974312 0.024283132
0.00048812683 -0.15410009 0.019090708
-0.0010985162 -0.15563078 0.021900797
-0.0026343314 -0.15583731 0.022279941
-0.0041640387 -0.1558702 0.022340294
-0.0056933756 -0.15590125 0.022397319
-0.0072229826 -0.15596509 0.022514541
-0.0087516159 -0.15599801 0.022574946
-0.010279932 -0.15602899 0.022631804
-0.011807988 -0.1560618 0.022692053
-0.013335771 -0.1560947 0.02275246
-0.014863295 -0.15612568 0.022809315
-0.016390573 -0.15615852 0.022869617
-0.017917309 -0.15622227 0.022986669
-0.019444024 -0.15625328 0.02304359
-0.020968011 -0.15642816 0.023364611
-0.022494202 -0.1564391 0.023384694
-0.024020327 -0.15645184 0.023408107
-0.02554643 -0.15646456 0.023431467
-0.027072579 -0.15647547 0.023451487
-0.028598197 -0.15650097 0.023498312
-0.030124327 -0.1565119 0.023518395
-0.031650409 -0.15652467 0.023541797
-0.033176526 -0.15653738 0.023565158
-0.034702688 -0.15655014 0.02358857
-0.03622973 -0.15654832 0.023585241
-0.037754864 -0.15658104 0.023645321
-0.039280862 -0.15659924 0.023678713
-0.040807024 -0.15661564 0.023708837
-0.042333268 -0.15663199 0.023738855
-0.043859597 -0.15664838 0.023768917
-0.045385882 -0.15666652 0.023802202
-0.046912406 -0.15668292 0.023832327
-0.048488189 -0.1561403 0.022836166
0.00061581121 -0.14880499 0.01462392
-0.0010081554 -0.15106577 0.018744513
-0.0025565296 -0.15133938 0.019243205
-0.0040973737 -0.15140259 0.019358434
-0.00563769 -0.15146764 0.019476984
-0.0071785422 -0.15159585 0.019710656
-0.0087174596 -0.15165898 0.019825717
-0.010255863 -0.15172395 0.019944161
-0.011793721 -0.15178706 0.020059168
-0.013331076 -0.15185204 0.020177612
-0.014867923 -0.15191507 0.020292515
-0.016404275 -0.15197997 0.020410789
-0.017937426 -0.15232447 0.021038704
-0.019472184 -0.15235595 0.021096066
-0.021006705 -0.15238926 0.021156758
-0.022541061 -0.1524207 0.021214077
-0.02407519 -0.15245399 0.02127477
-0.025609192 -0.15248542 0.021332026
-0.027142972 -0.15251873 0.02139277
-0.028675433 -0.15258336 0.02151056
-0.030208861 -0.15261482 0.02156787
-0.031742081 -0.15264808 0.021628508
-0.033275269 -0.15267949 0.021685764
-0.034808263 -0.1527127 0.021746298
-0.036341261 -0.15274408 0.021803502
-0.037872177 -0.15280874 0.021921344
-0.039404783 -0.152842 0.021981984
-0.040937454 -0.15287334 0.022039073
-0.042469949 -0.15290657 0.022099659
-0.04400254 -0.15293796 0.022156863
-0.045534972 -0.1529711 0.022217279
-0.047067378 -0.15300438 0.022277918
-0.048833326 -0.15036801 0.017472755
-0.0070343683 -0.1414766 0.0065587698
-0.0086093564 -0.14183797 0.0072127101
-0.010182177 -0.14226846 0.0079917423
-0.011751608 -0.14269412 0.0087619759
-0.013317736 -0.14312284 0.0095378049
-0.014876896 -0.1454377 0.013726792
-0.016430642 -0.14559971 0.014019976
-0.017981609 -0.14592142 0.014602141
-0.019532282 -0.14608306 0.014894671
-0.021081816 -0.14624073 0.015179974
-0.022630105 -0.14640217 0.015472115
-0.024177212 -0.14656337 0.015763825
-0.025723154 -0.14672449 0.016055364
-0.027244952 -0.14758469 0.017612027
-0.028787019 -0.14771482 0.01784748
-0.030330876 -0.14777893 0.017963512
-0.031874273 -0.14784484 0.018082786
-0.033417389 -0.1479089 0.018198701
-0.034960058 -0.14797485 0.018318029
-0.036502484 -0.14803883 0.018433839
-0.038040634 -0.14816865 0.018668754
-0.039582051 -0.14823447 0.018787872
-0.041123275 -0.14829841 0.018903567
-0.042664081 -0.14836414 0.019022524
-0.044204734 -0.14842808 0.019138219
-0.04574497 -0.14849381 0.019257167
-0.047284942 -0.14855954 0.019376127
