# .PCD v0.7 - Point Cloud Data file format
VERSION 0.7
FIELDS x y z
SIZE 4 4 4
TYPE F F F
COUNT 1 1 1
WIDTH 414
HEIGHT 1
VIEWPOINT 0 0 0 1 0 0 0
POINTS 414
DATA ascii
-0.032929923 0.16044776 0.0092490576
-0.034879934 0.15933649 0.010398038
-0.037056498 0.16544852 0.0040786057
-0.027123807 0.17041072 0.0034384741
-0.029067982 0.1675521 0.0063762194
-0.030994589 0.16462104 0.0093883863
-0.03282585 0.15870725 0.015465866
-0.034725014 0.15623166 0.018009968
-0.036664154 0.15542716 0.018836727
-0.038653508 0.15618534 0.018057561
-0.04066854 0.15750749 0.016698826
-0.042750649 0.16029911 0.01382995
-0.023157913 0.17596176 0.0022308466
-0.025126021 0.1730192 0.0052365549
-0.027079212 0.17015287 0.0081644012
-0.029015483 0.16723557 0.011144296
-0.030934149 0.16425581 0.014187999
-0.032763887 0.15853524 0.020031339
-0.034625985 0.15500689 0.023635412
-0.036560889 0.15436238 0.024293749
-0.038537081 0.15500271 0.02363967
-0.040530954 0.15601385 0.022606844
-0.04252908 0.15698577 0.021614056
-0.044609509 0.15973485 0.018805986
-0.046639979 0.1610578 0.017454641
-0.048725262 0.16334952 0.015113744
-0.050811239 0.16540164 0.013017594
-0.053193375 0.17269312 0.0055696443
-0.021150034 0.17871468 0.0039051368
-0.023127414 0.17573658 0.0069287471
-0.025088711 0.17278273 0.0099277273
-0.027034054 0.16984864 0.012906663
-0.028963799 0.16694264 0.015857061
-0.03087808 0.16406016 0.018783594
-0.032702334 0.15836421 0.024566587
-0.034566537 0.15511984 0.027860539
-0.036496833 0.15450631 0.028483437
-0.038465146 0.1550822 0.027898761
-0.040443938 0.15584755 0.02712171
-0.042427078 0.15661031 0.026347291
-0.044473633 0.15874392 0.024181079
-0.046481222 0.15976274 0.023146681
-0.048492789 0.160742 0.022152457
-0.050510637 0.16173248 0.021146853
-0.052565396 0.16329814 0.019557249
-0.05461245 0.16457045 0.018265504
-0.056674086 0.16596347 0.016851202
-0.058961291 0.17083861 0.01190157
-0.061352335 0.17688482 0.0057629612
-0.019139182 0.18146254 0.0055908947
-0.021126149 0.1784666 0.0086142095
-0.023096958 0.17549954 0.011608396
-0.02505172 0.1725522 0.014582682
-0.02699085 0.16963758 0.017523944
-0.02891426 0.16673788 0.020450136
-0.030822387 0.16386573 0.023348551
-0.032640632 0.15817326 0.029093051
-0.034516633 0.15554872 0.031741586
-0.036457505 0.1554153 0.031876221
-0.038425654 0.15608713 0.031198254
-0.040397752 0.15676022 0.030519016
-0.042372655 0.15740523 0.029868104
-0.044391248 0.15898089 0.028278034
-0.046381891 0.15974817 0.027503747
-0.04837792 0.16053399 0.026710745
-0.050379094 0.16133004 0.025907412
-0.052405231 0.16250202 0.024724726
-0.0544299 0.16352849 0.02368887
-0.056458186 0.16451511 0.022693235
-0.058577817 0.16687551 0.020311266
-0.060640939 0.16816093 0.019014096
-0.062718637 0.1695509 0.017611418
-0.064801693 0.17090245 0.016247524
-0.067010961 0.17386699 0.013255877
-0.069185063 0.17614841 0.010953589
-0.01913061 0.18243985 0.0090589132
-0.021114247 0.17944488 0.012062969
-0.023081778 0.17647871 0.015038152
-0.025033386 0.17353687 0.017988939
-0.026969278 0.17061874 0.020915918
-0.028889656 0.16772412 0.023819342
-0.030794723 0.16485271 0.026699468
-0.032612413 0.15924583 0.032323375
-0.034498241 0.15705533 0.034520533
-0.036443725 0.15712216 0.0344535
-0.03841079 0.15779936 0.033774246
-0.040381666 0.15847366 0.033097904
-0.042356521 0.1591493 0.032420211
-0.0443631 0.16047482 0.031090654
-0.046351671 0.1612388 0.03032436
-0.04834519 0.16201296 0.029547852
-0.050343107 0.16278434 0.028774127
-0.0523468 0.16357878 0.027977273
-0.05435551 0.16437928 0.027174341
-0.056386039 0.16546796 0.026082348
-0.058480967 0.16749182 0.024052348
-0.060521238 0.16849516 0.023045959
-0.062567599 0.16950127 0.022036783
-0.064657956 0.17104842 0.020484949
-0.066745937 0.17244086 0.019088278
-0.068839438 0.17379929 0.017725715
-0.071044788 0.17647871 0.015038155
-0.073712356 0.18464693 0.0068451306
-0.019113554 0.18217474 0.01375045
-0.021090563 0.17919104 0.016725125
-0.023051627 0.17624034 0.01966689
-0.024996832 0.17330922 0.022589128
-0.026926503 0.17040604 0.025483508
-0.028840695 0.16752186 0.028358951
-0.030740276 0.16468632 0.031185914
-0.032536559 0.15848812 0.037365329
-0.034475051 0.15839201 0.037461154
-0.03643088 0.15885612 0.036998451
-0.038392194 0.15940048 0.03645575
-0.040356871 0.15994988 0.035907999
-0.042324636 0.16049594 0.035363615
-0.044327274 0.16178459 0.034078863
-0.046309609 0.16246442 0.033401076
-0.048295997 0.16314571 0.032721858
-0.050286453 0.16382809 0.032041546
-0.052278962 0.16447367 0.031397931
-0.054275867 0.16512895 0.030744635
-0.056285836 0.16593905 0.029936979
-0.058348421 0.16752186 0.028358953
-0.060369901 0.16832885 0.027554411
-0.062396586 0.16914183 0.026743894
-0.064451888 0.17029369 0.025595536
-0.06650281 0.17129315 0.024599096
-0.068560511 0.17230409 0.023591209
-0.070624433 0.17331791 0.022580462
-0.07283435 0.17605595 0.01985071
-0.074944809 0.17742392 0.018486887
-0.01712247 0.18793491 0.012441408
-0.019096674 0.18192045 0.018401381
-0.021067165 0.1789521 0.021342853
-0.023021733 0.17600796 0.024260327
-0.024960589 0.17308745 0.02715439
-0.02688401 0.17019479 0.030020846
-0.028791972 0.16731678 0.032872785
-0.030685095 0.16447434 0.035689484
-0.032537211 0.16065098 0.039478198
-0.034474324 0.16050428 0.03962357
-0.036429692 0.16095722 0.039174736
-0.038387731 0.16141075 0.038725313
-0.040348459 0.16186474 0.038275428
-0.042314749 0.16239102 0.037753928
-0.04430858 0.16349241 0.036662508
-0.046283741 0.1640424 0.036117509
-0.048262395 0.16459729 0.035567649
-0.05024419 0.16514887 0.035021055
-0.052234109 0.16579063 0.0343851
-0.054230291 0.1664761 0.033705849
-0.056230623 0.16716293 0.033025254
-0.058274776 0.16849345 0.031706773
-0.060283381 0.16915402 0.031052189
-0.062300697 0.16988495 0.030327875
-0.0643261 0.17066881 0.029551119
-0.066358514 0.17148475 0.028742561
-0.06839563 0.17229816 0.02793652
-0.070438117 0.17311785 0.027124269
-0.072580591 0.17511182 0.025148351
-0.074652851 0.17613049 0.024138913
-0.076731421 0.17715204 0.023126619
-0.017112244 0.18765993 0.017119355
-0.019079907 0.18166792 0.023021182
-0.02104388 0.17871055 0.025934033
-0.022992037 0.17577706 0.028823376
-0.024924584 0.17286718 0.031689465
-0.026841722 0.16998065 0.034532547
-0.028743569 0.16711305 0.037356973
-0.03060638 0.16323493 0.041176725
-0.032535248 0.1627132 0.041690614
-0.034486033 0.1630497 0.041359175
-0.036438953 0.16339074 0.041023258
-0.038394064 0.16373634 0.040682871
-0.040356088 0.16421315 0.040213235
-0.04232011 0.16466941 0.039763842
-0.044306248 0.16558383 0.038863175
-0.046277039 0.16604188 0.038412027
-0.048250601 0.16650052 0.037960291
-0.05023149 0.16704918 0.037419885
-0.052216146 0.16760711 0.036870357
-0.054203954 0.16816165 0.036324177
-0.056195162 0.16871719 0.035776991
-0.05822432 0.1698349 0.034676101
-0.060231417 0.17050894 0.034012217
-0.062243797 0.17120139 0.033330183
-0.06425862 0.17186938 0.032672241
-0.066277273 0.17253441 0.032017224
-0.068300046 0.17320046 0.031361207
-0.070326991 0.17386785 0.03070385
-0.072433256 0.17546757 0.029128216
-0.074484035 0.17629193 0.028316265
-0.076539584 0.17711382 0.027506741
-0.015104389 0.19039729 0.018818721
-0.017102068 0.18738239 0.021770289
-0.019063372 0.18143478 0.027592946
-0.021020792 0.17847498 0.030490555
-0.022962537 0.17554782 0.033356223
-0.024888754 0.17264426 0.036198787
-0.026799716 0.16976811 0.0390145
-0.02868708 0.16649947 0.042214472
-0.030607751 0.16543342 0.043258123
-0.032558743 0.1657588 0.042939585
-0.034507427 0.16593634 0.042765781
-0.036462281 0.16627499 0.042434227
-0.038419299 0.16661809 0.04209834
-0.040378232 0.16695732 0.041766245
-0.042339228 0.16729689 0.041433819
-0.044317387 0.16799389 0.04075145
-0.046284698 0.16835995 0.040393084
-0.048260562 0.16885856 0.039904952
-0.050237514 0.16931951 0.039453678
-0.052217279 0.1697809 0.03900199
-0.054199889 0.17024304 0.038549554
-0.056185357 0.17070571 0.038096614
-0.058208756 0.17174032 0.037083734
-0.060207956 0.17230393 0.03653197
-0.062210366 0.17286421 0.035983454
-0.064216249 0.17342518 0.035434272
-0.066225953 0.17399143 0.034879923
-0.068238892 0.17455427 0.034328908
-0.070266865 0.1752656 0.033632524
-0.072348997 0.17659649 0.032329585
-0.074384011 0.17726821 0.031671986
-0.076423623 0.17794538 0.03100905
-0.015102684 0.19135685 0.022254497
-0.017096961 0.18833409 0.025195852
-0.019055955 0.18253012 0.030843515
-0.021009244 0.17943883 0.033851549
-0.022947809 0.17651279 0.036698785
-0.024870895 0.17361008 0.039523326
-0.026778853 0.17073907 0.042317018
-0.02868803 0.16868897 0.044311911
-0.030615479 0.16790788 0.045071963
-0.032572981 0.16845109 0.044543382
-0.034525964 0.16872728 0.044274624
-0.036480471 0.16899946 0.044009771
-0.038436923 0.16928028 0.043736521
-0.04039197 0.16947612 0.043545958
-0.042353999 0.16981705 0.043214217
-0.044332668 0.17050409 0.042545661
-0.046299834 0.17084605 0.042212922
-0.048270125 0.17120962 0.04185915
-0.050242681 0.17157361 0.041504961
-0.05222296 0.17204082 0.041050334
-0.05420563 0.17250016 0.040603355
-0.056191381 0.17296429 0.040151723
-0.058208488 0.17389452 0.039246544
-0.060201332 0.17436045 0.038793165
-0.062202003 0.17490055 0.038267616
-0.064207532 0.17546311 0.037720203
-0.066216581 0.1760267 0.037171789
-0.068229474 0.17659533 0.036618471
-0.070245616 0.17716047 0.036068566
-0.072318509 0.17838958 0.034872551
-0.074351706 0.17905383 0.034226198
-0.076498508 0.18099666 0.032335687
-0.015099368 0.19111709 0.026835823
-0.01708767 0.18824829 0.029610479
-0.019038446 0.18212844 0.035529468
-0.020986304 0.17919374 0.038367864
-0.02291855 0.17627822 0.041187696
-0.024835164 0.17336889 0.044001557
-0.02676408 0.17204911 0.045278024
-0.028708925 0.1718609 0.045460045
-0.030659951 0.17198063 0.045344252
-0.032614723 0.17221595 0.045116641
-0.034567509 0.17233148 0.045004912
-0.036521208 0.17245147 0.044888869
-0.038474418 0.17253271 0.044810291
-0.040435314 0.17280695 0.044545051
-0.042398073 0.17308573 0.044275418
-0.044374097 0.17363943 0.043739881
-0.046340138 0.17389731 0.043490473
-0.048305165 0.17409939 0.043295026
-0.05027869 0.17444381 0.042961903
-0.052254587 0.17479262 0.042624552
-0.054232448 0.17513756 0.04229093
-0.05621402 0.17550881 0.04193186
-0.058220621 0.17625226 0.041212812
-0.060214855 0.17673296 0.040747896
-0.062211219 0.17720114 0.040295083
-0.064210549 0.17767017 0.03984144
-0.066212825 0.17813955 0.039387468
-0.068218105 0.17860961 0.03893283
-0.070226409 0.17908037 0.038477529
-0.072290502 0.18021151 0.037383497
-0.074314721 0.18078081 0.036832877
-0.017077912 0.18803395 0.034122322
-0.019019822 0.18154584 0.040359523
-0.020970257 0.17966393 0.042168662
-0.022907805 0.17755345 0.044197515
-0.024857523 0.1770256 0.044704959
-0.026804866 0.17652009 0.045190915
-0.028759724 0.17651579 0.045195047
-0.030714767 0.17651579 0.045195047
-0.032669712 0.17650712 0.045203391
-0.034621213 0.17637336 0.045331966
-0.036579911 0.17648992 0.045219917
-0.038539555 0.17661078 0.04510374
-0.040500049 0.1767318 0.044987392
-0.04246122 0.17684835 0.044875346
-0.044421069 0.17691325 0.044812959
-0.046390947 0.17718995 0.044546969
-0.048362773 0.17747128 0.044276513
-0.050337043 0.17776568 0.043993499
-0.052311368 0.17802578 0.043743458
-0.0542874 0.17828606 0.043493249
-0.056265149 0.17854641 0.043242957
-0.058262877 0.17910694 0.042704117
-0.060250744 0.17945918 0.042365491
-0.062242363 0.17983395 0.042005219
-0.06423638 0.1802088 0.04164486
-0.06623283 0.18058409 0.041284092
-0.068231747 0.1809597 0.040922992
-0.070242919 0.18146272 0.040439431
-0.072292604 0.18240927 0.039529491
-0.074401438 0.18400563 0.037994858
-0.019085877 0.1935311 0.033149257
-0.021022672 0.18739094 0.039016228
-0.022967601 0.18464717 0.041637924
-0.024929656 0.18405326 0.042205412
-0.026888613 0.18346038 0.042771909
-0.028838396 0.18256646 0.043626066
-0.030796723 0.18225144 0.043927066
-0.032744884 0.18160038 0.044549171
-0.034696005 0.18117294 0.044957589
-0.036658075 0.18116854 0.044961791
-0.038620293 0.18116415 0.044965994
-0.040582832 0.18116415 0.044965994
-0.042545401 0.18115966 0.044970278
-0.044508174 0.18115552 0.04497423
-0.046476562 0.18127312 0.044861872
-0.048446044 0.18139528 0.044745144
-0.050416451 0.18151744 0.044628419
-0.052387793 0.18163969 0.044511609
-0.054351162 0.18160038 0.044549171
-0.056333087 0.18187988 0.044282109
-0.058333836 0.18243964 0.043747243
-0.060319114 0.18270215 0.043496408
-0.062306184 0.18296503 0.043245245
-0.064295046 0.18322796 0.042994
-0.06628228 0.18344289 0.042788636
-0.06828247 0.18381162 0.042436313
-0.070285425 0.18418509 0.042079464
-0.072415337 0.18612476 0.040226087
-0.025010947 0.19173045 0.039145943
-0.026969975 0.1902926 0.040511519
-0.028899539 0.18776974 0.042907536
-0.030859604 0.18717259 0.043474656
-0.032797057 0.18580961 0.044769116
-0.034756824 0.18549271 0.045070086
-0.036714237 0.18514977 0.045395777
-0.038662925 0.18459646 0.045921262
-0.040628716 0.18459205 0.04592545
-0.042594694 0.18458773 0.045929555
-0.04456085 0.18458316 0.04593391
-0.046527226 0.18457891 0.045937933
-0.04849134 0.18452185 0.045992132
-0.050464135 0.1846403 0.045879629
-0.052438069 0.18476309 0.045763016
-0.054412968 0.18488622 0.045646079
-0.056388821 0.18500909 0.045529384
-0.058368597 0.18518056 0.045366541
-0.060357396 0.18547507 0.045086842
-0.062346131 0.18573922 0.044835962
-0.064336956 0.18600771 0.044580981
-0.066329308 0.18627211 0.044329859
-0.068323508 0.1865368 0.044078488
-0.070312455 0.18670887 0.043915071
-0.072477937 0.18909113 0.041652583
-0.033013187 0.19647977 0.038914338
-0.034961056 0.19492863 0.040378559
-0.036872588 0.19246197 0.042707026
-0.038837176 0.19197059 0.043170866
-0.040774237 0.19078508 0.04428995
-0.042738736 0.19046482 0.044592276
-0.044689029 0.18983841 0.04518358
-0.046639975 0.18929744 0.045694251
-0.048613612 0.18929744 0.045694251
-0.050587296 0.18929301 0.045698423
-0.052561231 0.18928859 0.045702599
-0.054535434 0.18928418 0.045706775
-0.056510173 0.18928418 0.045706775
-0.058489509 0.18935502 0.045639891
-0.060473189 0.18948363 0.045518488
-0.062457625 0.18960781 0.045401257
-0.064443097 0.18973202 0.045284029
-0.066429622 0.18985628 0.045166716
-0.068413615 0.18993174 0.045095496
-0.070413351 0.19020265 0.044839755
-0.043072507 0.20126693 0.03867726
-0.044903032 0.19718674 0.042505506
-0.04686626 0.19660938 0.04304722
-0.048800651 0.19547543 0.044111148
-0.050767291 0.19511168 0.044452436
-0.052736711 0.19483343 0.044713497
-0.054705195 0.19455989 0.044970155
-0.056658152 0.19403601 0.045461684
-0.058639836 0.1940314 0.04546601
-0.060621835 0.19402696 0.045470171
-0.062604167 0.19402252 0.045474332
-0.064586833 0.19401792 0.045478661
-0.066567652 0.19398217 0.045512199
-0.068560511 0.1941075 0.045394603
-0.051218323 0.20645684 0.038094901
-0.053024393 0.20256031 0.041728664
-0.054992739 0.20201282 0.04223923
-0.056947842 0.20127952 0.042923078
-0.058858961 0.19987155 0.044236109
-0.060833417 0.19959065 0.04449806
-0.062807046 0.19931446 0.044755623
-0.064763919 0.19880781 0.045228116
