# .PCD v0.7 - Point Cloud Data file format
VERSION 0.7
FIELDS x y z
SIZE 4 4 4
TYPE F F F
COUNT 1 1 1
WIDTH 575
HEIGHT 1
VIEWPOINT 0 0 0 1 0 0 0
POINTS 575
DATA ascii
0.094365463 -0.077202074 0.014922602
0.092889696 -0.0763309 0.013577106
0.091650382 -0.074378006 0.010560972
0.090296648 -0.072885796 0.0082563395
0.099417105 -0.075199097 0.016654911
0.097000554 -0.078323349 0.021448199
0.095243141 -0.078721158 0.022058539
0.093676507 -0.078304552 0.021419371
0.092310004 -0.076993823 0.019408418
0.091298699 -0.07404986 0.014891719
0.089947827 -0.07256408 0.012612185
0.088589795 -0.071066454 0.010314485
0.087223947 -0.069559418 0.0080023399
0.085860424 -0.067993768 0.0056002853
0.084491208 -0.066405639 0.0031637333
0.10318436 -0.071635664 0.016005004
0.10038555 -0.076222844 0.022996325
0.098399207 -0.077556022 0.025028236
0.096516699 -0.078492731 0.026455877
0.094796546 -0.078763001 0.026867799
0.093288779 -0.078117132 0.025883429
0.091958411 -0.076667301 0.023673732
0.090949327 -0.073726393 0.019191487
0.089601867 -0.072244465 0.016932879
0.088247269 -0.070750885 0.014656506
0.086884417 -0.069250226 0.012369344
0.085514218 -0.067737706 0.010064121
0.084151633 -0.066139467 0.0076282332
0.083091207 -0.062982984 0.0028174429
0.10867424 -0.06805186 0.015351705
0.10608089 -0.071616396 0.020748684
0.1040885 -0.072872914 0.022651153
0.10207094 -0.074271776 0.024769105
0.099945128 -0.076162465 0.027631741
0.098055035 -0.077124298 0.029088043
0.096209034 -0.077931039 0.030309491
0.094550908 -0.07795427 0.030344673
0.092893772 -0.077977568 0.03037996
0.091618612 -0.076303117 0.027844699
0.090601757 -0.073409721 0.023463892
0.089258201 -0.07192935 0.021222522
0.08790651 -0.070442177 0.018970847
0.086547144 -0.068945557 0.016704854
0.085180476 -0.067437135 0.014420988
0.083813883 -0.06588006 0.012063461
0.082745008 -0.062782407 0.0073733907
0.081355713 -0.061209865 0.0049924725
0.079945035 -0.059694909 0.0026987037
0.11151612 -0.068235092 0.020392153
0.1095003 -0.069504447 0.022301426
0.10749242 -0.070781469 0.024222249
0.1055273 -0.071927994 0.025946772
0.10361952 -0.07287968 0.027378237
0.10171852 -0.073834628 0.028814614
0.099691994 -0.075341977 0.031081852
0.097875409 -0.076013707 0.032092206
0.096047938 -0.076755777 0.033208393
0.094275273 -0.077286422 0.034006547
0.092627116 -0.07728871 0.034009993
0.091290906 -0.075899146 0.031919912
0.090259075 -0.073085658 0.027688049
0.088915765 -0.071623452 0.02548871
0.087568022 -0.070137814 0.023254126
0.086212106 -0.068645291 0.021009153
0.08484894 -0.067141011 0.018746519
0.083477475 -0.065629594 0.01647315
0.082403734 -0.062573187 0.011875939
0.08101581 -0.061018012 0.009536746
0.07962162 -0.059442744 0.0071673235
0.078205787 -0.057927817 0.0048886957
0.11808763 -0.060809996 0.014016764
0.11529842 -0.064834893 0.02003108
0.11326431 -0.066117227 0.021947265
0.11092189 -0.068618484 0.025684839
0.10899475 -0.069579609 0.027121024
0.1070787 -0.07052739 0.028537264
0.10519079 -0.071393102 0.029830899
0.10335568 -0.07207346 0.030847544
0.1015273 -0.072749496 0.031857722
0.099557132 -0.074039474 0.033785317
0.097777769 -0.074564815 0.034570325
0.096002698 -0.075091265 0.035356995
0.09423241 -0.075616606 0.036142003
0.092530623 -0.075858951 0.036504127
0.090922132 -0.075693496 0.036256883
0.089919664 -0.072761282 0.03187535
0.08857765 -0.071312338 0.029710202
0.087231249 -0.069840237 0.027510474
0.085879289 -0.068349347 0.025282664
0.084519148 -0.066851459 0.023044402
0.083151713 -0.065341778 0.020788513
0.082079507 -0.062293891 0.016234122
0.080692336 -0.060757879 0.0139389
0.079298042 -0.059207141 0.011621655
0.077895068 -0.057649035 0.0092933998
0.076483823 -0.056080919 0.0069502029
0.075064212 -0.0545027 0.0045919069
0.11962131 -0.059544947 0.016888449
0.11702539 -0.06282381 0.02175598
0.1149845 -0.064114317 0.023671756
0.11292034 -0.065531231 0.0257752
0.11073028 -0.067474127 0.028659469
0.10879787 -0.068469599 0.030137252
0.10695229 -0.069153272 0.031152181
0.10511231 -0.069837347 0.032167722
0.10327853 -0.070519492 0.033180382
0.10144684 -0.071216233 0.034214698
0.099534012 -0.072276406 0.035788536
0.097754501 -0.072805874 0.036574554
0.095979817 -0.073334195 0.037358854
0.09422493 -0.073795788 0.038044076
0.092490062 -0.074186429 0.038624
0.090859368 -0.074123293 0.038530264
0.089744076 -0.071700856 0.034934126
0.088406861 -0.070236877 0.032760832
0.087064222 -0.068754278 0.030559881
0.085713468 -0.067264892 0.028348858
0.084355555 -0.065763742 0.026120353
0.082989372 -0.064255685 0.023881638
0.081917971 -0.061205972 0.019354274
0.080533102 -0.059666645 0.017069114
0.079140171 -0.058117546 0.014769445
0.07773909 -0.056558535 0.012455077
0.076329745 -0.054989632 0.010125988
0.074912518 -0.053408094 0.0077781766
0.12254851 -0.059399623 0.021393443
0.12048002 -0.060715575 0.023334263
0.11837886 -0.06218851 0.025506606
0.11642206 -0.063168012 0.026951222
0.11447671 -0.064133786 0.028375596
0.11252299 -0.065161012 0.029890588
0.11048568 -0.066542245 0.031927712
0.10863592 -0.067231156 0.032943726
0.10678456 -0.067949139 0.034002654
0.10498471 -0.068483852 0.034791265
0.10318922 -0.06901972 0.035581592
0.10139863 -0.069554396 0.036370162
0.099499658 -0.070563465 0.037858378
0.097752847 -0.070957854 0.038440026
0.096009776 -0.071351647 0.039020829
0.094270982 -0.071742423 0.039597157
0.092535354 -0.072134867 0.040175948
0.090798743 -0.072547778 0.040784929
0.089402378 -0.071412854 0.0391111
0.088070557 -0.069943368 0.036943823
0.086730786 -0.068467118 0.034766611
0.085383967 -0.066979341 0.032572363
0.084029026 -0.065484717 0.030368008
0.082666866 -0.063978337 0.02814633
0.081597008 -0.060937095 0.023660988
0.080215782 -0.059402045 0.021397006
0.078826509 -0.057857417 0.019118916
0.077429168 -0.056302797 0.016826116
0.076023608 -0.05473838 0.014518838
0.074610204 -0.053161468 0.012193122
0.12919909 -0.052213714 0.015542908
0.12640288 -0.055955995 0.021026321
0.12431177 -0.057297926 0.022992577
0.12189586 -0.059841584 0.026719697
0.1199422 -0.06077525 0.028087754
0.11799707 -0.061705284 0.029450508
0.11608718 -0.062531993 0.030661851
0.11421822 -0.063229695 0.031684168
0.11235563 -0.063925408 0.032703571
0.11034818 -0.065204933 0.034578402
0.10853918 -0.065743677 0.035367791
0.10673457 -0.066283576 0.03615889
0.10493493 -0.06682232 0.036948279
0.10315131 -0.067314491 0.037669431
0.10139462 -0.067712732 0.038252953
0.099548101 -0.068504907 0.039413702
0.097802162 -0.068894088 0.039983947
0.096049033 -0.06932991 0.040622536
0.094325684 -0.069651552 0.041093845
0.092606001 -0.069970466 0.041561138
0.090888917 -0.070291296 0.042031232
0.089233115 -0.070343137 0.04210718
0.087676011 -0.069937401 0.04151269
0.086400017 -0.068181708 0.03894015
0.085056134 -0.06670028 0.036769472
0.083705142 -0.065207295 0.034581859
0.082346484 -0.063705042 0.032380667
0.081278659 -0.060669798 0.027933246
0.079901032 -0.059139058 0.025690326
0.078514971 -0.057601139 0.023436882
0.077121317 -0.056051053 0.021165598
0.075719535 -0.054491084 0.018879836
0.074309498 -0.052921187 0.016579555
0.073169976 -0.049751189 0.011934687
0.13201511 -0.052465055 0.020614374
0.12988763 -0.053858407 0.022642756
0.12777244 -0.055246588 0.024663582
0.12571906 -0.0564554 0.026423341
0.12374997 -0.057398416 0.027796127
0.12155066 -0.059197284 0.030414838
0.11966583 -0.059899472 0.031437047
0.11778678 -0.060602035 0.032459803
0.11589853 -0.061361089 0.033564821
0.11407299 -0.061906282 0.034358468
0.11225189 -0.062452767 0.035154022
0.11029602 -0.063541964 0.036739629
0.10849638 -0.064048633 0.037477221
0.10672735 -0.064450718 0.038062554
0.10496278 -0.064849816 0.038643539
0.10320147 -0.065250628 0.03922702
0.10144226 -0.065657929 0.039819952
0.099602804 -0.066420384 0.040929914
0.097872071 -0.066742383 0.041398671
0.096143998 -0.067066245 0.041870125
0.094419636 -0.067387313 0.042337533
0.092697866 -0.067710422 0.042807881
0.091010958 -0.067888357 0.043066926
0.089278065 -0.068288825 0.043649912
0.087627716 -0.068317287 0.043691333
0.086069457 -0.067909673 0.043097958
0.08473143 -0.066420384 0.040929914
0.083383374 -0.064933904 0.038765967
0.082028694 -0.06343329 0.036581431
0.08096242 -0.060406409 0.032175042
0.079588383 -0.058879945 0.02995288
0.078205958 -0.05734637 0.027720381
0.076816007 -0.055800617 0.025470139
0.075417511 -0.054247588 0.023209298
0.074011274 -0.052682236 0.020930523
0.072873719 -0.049521454 0.016329203
0.071446717 -0.047928464 0.014010208
0.13128251 -0.053050503 0.026122937
0.12929337 -0.054002866 0.027500371
0.12731297 -0.054951642 0.02887262
0.12535676 -0.055842154 0.030160597
0.12345864 -0.056551315 0.031186283
0.12135078 -0.058039699 0.033338964
0.11950995 -0.058592759 0.034138903
0.11767495 -0.059142113 0.034933444
0.11584444 -0.059692707 0.035729777
0.11401907 -0.060242016 0.036524277
0.11220513 -0.060765732 0.03728174
0.11032271 -0.061574753 0.038451854
0.10854837 -0.061981857 0.039040677
0.10677432 -0.062402822 0.039649531
0.10499834 -0.062847182 0.040292218
0.10325518 -0.063172631 0.040762924
0.10151464 -0.063500144 0.041236624
0.099700473 -0.064153768 0.042181969
0.097970434 -0.064467877 0.042636279
0.096273057 -0.064652354 0.04290311
0.094573542 -0.064855799 0.043197338
0.092876792 -0.065056741 0.043487992
0.091182292 -0.065257497 0.043778334
0.089443877 -0.06567274 0.044378914
0.087781802 -0.065744273 0.044482376
0.086111084 -0.065863498 0.044654809
0.084571831 -0.065348186 0.043909505
0.083006889 -0.064946763 0.043328911
0.081712514 -0.06316784 0.040756002
0.080647804 -0.06014929 0.036390167
0.079281561 -0.05860503 0.034156639
0.077900864 -0.057085503 0.0319589
0.076510437 -0.055566456 0.029761858
0.075117499 -0.054007929 0.027507696
0.073714592 -0.052449603 0.025253842
0.072579451 -0.04929547 0.020691896
0.0711568 -0.047704589 0.018390941
0.13089803 -0.052468866 0.029902762
0.12898214 -0.053187534 0.030935464
0.12707363 -0.053901583 0.031961571
0.12517102 -0.054616056 0.032988269
0.1232944 -0.055259038 0.033912223
0.1212936 -0.056372222 0.035511866
0.11945361 -0.056926925 0.036308978
0.11762273 -0.057465658 0.037083123
0.11583078 -0.05787567 0.037672326
0.11404346 -0.058282502 0.038256954
0.11225568 -0.058705814 0.038865227
0.11035689 -0.059579466 0.040120669
0.10860223 -0.059908096 0.040592913
0.10685026 -0.060238801 0.04106814
0.10510102 -0.060571413 0.041546095
0.10335863 -0.060888935 0.042002387
0.10161937 -0.061206184 0.042458281
0.09986461 -0.061602652 0.04302799
0.098157622 -0.061807938 0.043322988
0.096453503 -0.06201059 0.043614212
0.094748944 -0.062225223 0.043922622
0.093047269 -0.062437177 0.044227216
0.091377757 -0.062511727 0.044334322
0.089673504 -0.062754713 0.044683497
0.087997071 -0.062877327 0.044859704
0.086322278 -0.062999882 0.045035806
0.084649593 -0.06311997 0.045208387
0.083082542 -0.062721059 0.044635136
0.081513166 -0.062323973 0.044064529
0.0803409 -0.05986679 0.040533572
0.078979999 -0.058316819 0.038306259
0.077611141 -0.056756955 0.036064729
0.076224215 -0.05524167 0.033887275
0.074828938 -0.053719506 0.031699929
0.07342568 -0.052187901 0.029499007
0.072287172 -0.049073081 0.025023011
0.070868395 -0.047486927 0.022743709
0.069441639 -0.045888003 0.020446073
0.13070434 -0.051245615 0.032737199
0.12880717 -0.051909998 0.033685777
0.12694468 -0.052472647 0.034489106
0.12508747 -0.053034086 0.035290699
0.12323558 -0.053594247 0.036090445
0.12127863 -0.054554701 0.037461728
0.11947306 -0.054985303 0.038076535
0.11767165 -0.05541515 0.038690243
0.11587508 -0.055841841 0.039299436
0.11407554 -0.056294847 0.03994621
0.11231069 -0.056629103 0.040423449
0.11046638 -0.05728887 0.041365433
0.10871254 -0.057609629 0.04182338
0.10696196 -0.057929892 0.04228064
0.10524436 -0.058127727 0.042563111
0.10352674 -0.058335152 0.042859256
0.10181206 -0.058539901 0.043151584
0.10004682 -0.058970895 0.043766931
0.098335348 -0.059184916 0.044072494
0.096657112 -0.059262689 0.044183541
0.094969973 -0.059386536 0.044360369
0.093284518 -0.059510384 0.044537194
0.09160126 -0.059631735 0.04471045
0.08989691 -0.059859686 0.045035888
0.088258028 -0.059786942 0.044932038
0.086604431 -0.059786942 0.044932038
0.084951602 -0.059786942 0.044932038
0.083299525 -0.059786942 0.044932038
0.081648201 -0.059786942 0.044932038
0.080184221 -0.058819998 0.043551486
0.078651235 -0.058186267 0.042646687
0.077314995 -0.056476738 0.040205933
0.075935714 -0.05494326 0.038016498
0.074547149 -0.053407617 0.035823997
0.073147908 -0.051877499 0.033639379
0.071999051 -0.048841588 0.029304899
0.07058195 -0.047272727 0.027064953
0.13064429 -0.049569763 0.034912579
0.12877685 -0.050135668 0.035715349
0.12691477 -0.050700244 0.036516245
0.12505801 -0.051263537 0.037315305
0.12322868 -0.051745653 0.037999224
0.12129904 -0.052610245 0.039225709
0.11949317 -0.053042658 0.039839122
0.11769147 -0.053474318 0.040451445
0.11589985 -0.053882856 0.041030996
0.11413142 -0.054216679 0.041504536
0.11236703 -0.054547563 0.041973937
0.11052617 -0.055193286 0.042889927
0.10878682 -0.055454016 0.043259796
0.10706358 -0.055660449 0.043552633
0.10534211 -0.055869184 0.043848734
0.10362363 -0.056075301 0.044141129
0.10190287 -0.056300767 0.04446096
0.10015723 -0.056643609 0.044947315
0.098464817 -0.056768354 0.045124259
0.096774675 -0.056890652 0.045297746
0.095085703 -0.057015281 0.045474552
0.093398444 -0.057139773 0.045651156
0.091717064 -0.057244748 0.045800071
0.090062633 -0.057230115 0.045779306
0.088405848 -0.057230115 0.045779306
0.086749867 -0.057230115 0.045779306
0.085094646 -0.057230115 0.045779306
0.083464481 -0.057108026 0.045606114
0.081835672 -0.056978613 0.045422543
0.08025755 -0.056584917 0.044864055
0.078710958 -0.056013998 0.044054162
0.077172875 -0.0553803 0.043155231
0.075792156 -0.053863097 0.041002959
0.074405357 -0.052326571 0.038823314
0.073010147 -0.050782911 0.036633521
0.071862668 -0.047742777 0.032320887
0.070439227 -0.046221349 0.03016264
0.13058208 -0.047904897 0.037094921
0.1287321 -0.048414484 0.037813153
0.12690695 -0.048852559 0.038430605
0.12508608 -0.049289819 0.039046932
0.12327017 -0.049723942 0.039658807
0.12134534 -0.050572276 0.040854514
0.11956501 -0.050909322 0.041329551
0.11779076 -0.051235929 0.041789912
0.11601987 -0.051562123 0.042249672
0.11425231 -0.051887866 0.042708788
0.11250268 -0.052156121 0.043086898
0.11071841 -0.052572783 0.043674171
0.1089849 -0.05280067 0.043995373
0.10725636 -0.053018454 0.044302318
0.10552969 -0.053238533 0.044612531
0.1038273 -0.053366996 0.044793595
0.10212728 -0.053492941 0.044971105
0.10040042 -0.053742211 0.045322429
0.098707713 -0.053853214 0.045478892
0.097016111 -0.053966526 0.045638606
0.09535455 -0.053951733 0.045617744
0.093690507 -0.053951733 0.045617744
0.092027284 -0.053951733 0.045617744
0.090368003 -0.053936999 0.045596987
0.088732556 -0.053811267 0.045419771
0.087098598 -0.053678039 0.045232005
0.085464023 -0.053547271 0.045047686
0.083829835 -0.053413916 0.044859711
0.082190216 -0.053307697 0.044710018
0.080662504 -0.052617427 0.043737087
0.079059303 -0.052307468 0.043300204
0.07749337 -0.051788438 0.04256865
0.075953342 -0.051111352 0.04161432
0.074453466 -0.050187238 0.040311813
0.072978958 -0.04908631 0.038760103
0.071977593 -0.045185737 0.03326235
0.13100021 -0.044579059 0.036942631
0.12877469 -0.046390191 0.039479028
0.12694965 -0.046827663 0.040091686
0.12513381 -0.047246698 0.040678527
0.12334633 -0.047576971 0.041141037
0.12147284 -0.04823602 0.042064011
0.11969343 -0.048564915 0.042524613
0.11793198 -0.048838288 0.042907465
0.11618924 -0.049051192 0.043205634
0.11444573 -0.049276467 0.043521103
0.11270542 -0.049499139 0.043832939
0.1109125 -0.049941104 0.044451896
0.10919968 -0.050075877 0.044640642
0.1074912 -0.050200503 0.044815172
0.10578392 -0.050327558 0.044993095
0.104082 -0.050439645 0.045150071
0.10238115 -0.05055419 0.04531049
0.1006849 -0.050656166 0.045453306
0.099013418 -0.050656166 0.045453306
0.097342819 -0.050656166 0.045453306
0.095673084 -0.050656166 0.045453306
0.094009601 -0.050631341 0.045418534
0.092370786 -0.050494425 0.04522679
0.09075921 -0.050227962 0.044853631
0.089118786 -0.050095748 0.044668481
0.087469608 -0.050005995 0.044542778
0.085880309 -0.049619015 0.044000842
0.084274463 -0.049306486 0.043563157
0.082667358 -0.04899361 0.043124977
0.081213795 -0.047868982 0.041550014
0.079650752 -0.04729211 0.04074211
0.078184031 -0.046174996 0.039177671
0.076707788 -0.045073174 0.037634611
0.07559181 -0.041903373 0.033195473
0.12911691 -0.043312017 0.039676551
0.12706152 -0.044557162 0.041409165
0.12526876 -0.044889711 0.041871928
0.12347946 -0.045221817 0.042334035
0.12164499 -0.045733035 0.043045413
0.11989157 -0.045957878 0.043358278
0.11814141 -0.046180043 0.043667413
0.11639316 -0.046404604 0.043979891
0.11464812 -0.046626441 0.044288598
0.11292674 -0.046764895 0.044481251
0.11118145 -0.04700651 0.044817466
0.10946925 -0.047124662 0.044981871
0.10775941 -0.047240309 0.045142788
0.10605069 -0.047358416 0.045307148
0.10437527 -0.047343295 0.045286108
0.10269713 -0.047343295 0.045286108
0.1010251 -0.047320738 0.045254719
0.099352084 -0.047305658 0.045233719
0.097708493 -0.047162443 0.04503445
0.096062638 -0.0470291 0.044848908
0.094417274 -0.046893261 0.044659879
0.092763796 -0.046795104 0.044523284
0.09119577 -0.046291068 0.043821916
0.089586213 -0.045975536 0.043382853
0.087981589 -0.045629341 0.042901114
0.086416103 -0.045079906 0.04213658
0.084853955 -0.044498712 0.041327856
0.083281055 -0.04395704 0.0405741
0.082036518 -0.041672986 0.037395839
0.080963776 -0.038391445 0.032829553
0.12544204 -0.042392172 0.042875189
0.12367964 -0.042619269 0.043189172
0.12185945 -0.043070272 0.043812748
0.12010317 -0.043296695 0.044125803
0.11837217 -0.043436579 0.044319216
0.11664914 -0.043553431 0.044480786
0.11492723 -0.043672863 0.044645928
0.1132078 -0.043789655 0.044807393
0.11146043 -0.044025593 0.045133609
0.10977679 -0.044012886 0.045116056
0.10809094 -0.044012886 0.045116056
0.10641088 -0.04399262 0.045088015
0.10472984 -0.043979958 0.045070503
0.10305022 -0.043964699 0.045049433
0.10143428 -0.043675382 0.044649396
0.099776015 -0.043568645 0.044501819
0.098118484 -0.043459389 0.044350773
0.096461095 -0.043350115 0.044199668
0.094867088 -0.042948 0.043643698
0.093254007 -0.042626873 0.043199692
0.091767073 -0.041696958 0.041913949
0.090204075 -0.041110136 0.041102588
0.088625729 -0.040583745 0.040374774
0.087179646 -0.039380316 0.03871087
0.085711181 -0.038254149 0.037153799
0.084673285 -0.034858886 0.032459397
0.12416862 -0.038951132 0.042588927
0.12212832 -0.040200852 0.044305842
0.12039699 -0.04032141 0.044471458
0.11866818 -0.040439297 0.044633429
0.11694056 -0.040559739 0.044798907
0.11521541 -0.040677499 0.044960666
0.11352496 -0.040664706 0.044943113
0.11183988 -0.040633962 0.044900861
0.11015112 -0.040621243 0.044883404
0.10846391 -0.040605839 0.044862226
0.10681297 -0.040441856 0.044636939
0.10515526 -0.040305994 0.044450291
0.10348688 -0.040216222 0.044326968
0.10184874 -0.039995573 0.044023819
0.10025287 -0.039584514 0.043459091
0.098642185 -0.039231978 0.042974763
0.097030148 -0.038878869 0.042489652
0.095466174 -0.038295526 0.041688219
0.093901113 -0.037702974 0.040874161
0.092574239 -0.035953607 0.038470801
0.091110371 -0.034819089 0.036912136
0.090121858 -0.031297479 0.032074004
0.12228076 -0.037760958 0.045398552
0.12054746 -0.037882172 0.045564018
0.11881666 -0.038000848 0.045726042
0.1170871 -0.038121883 0.04589127
0.11541237 -0.038034353 0.045771774
0.11371998 -0.038018916 0.045750711
0.1120317 -0.03799051 0.045711935
0.11034041 -0.037977614 0.045694318
0.10870221 -0.037748016 0.045380894
0.10703157 -0.037652534 0.045250554
0.10536488 -0.037541479 0.045098953
0.10369838 -0.037430387 0.044947296
0.10215106 -0.03679667 0.044082191
0.10054314 -0.0364182 0.043565542
0.098928556 -0.036062587 0.043080077
0.097389705 -0.035352383 0.042110559
0.095808759 -0.034820519 0.041384507
0.094228715 -0.034271736 0.040635336
0.09339878 -0.030099886 0.034940273
0.12090692 -0.034646779 0.045582343
0.11920661 -0.034631155 0.045561131
0.11750658 -0.034618162 0.045543525
0.11580813 -0.034602534 0.045522314
0.11413534 -0.034487929 0.045366846
0.11248785 -0.034271725 0.045073576
0.11081456 -0.034159645 0.044921566
0.10914151 -0.034047503 0.044769447
0.10751751 -0.033729073 0.044337492
0.10590284 -0.033365749 0.043844648
0.10428558 -0.033007171 0.043358263
0.10283262 -0.031917941 0.041880753
0.10124523 -0.031401873 0.041180715
0.09966369 -0.030847853 0.040429194
0.098304018 -0.029258285 0.038273003
0.097177848 -0.026530743 0.034573153
0.11795636 -0.030985747 0.045046307
0.11627667 -0.030872656 0.044893872
0.1145973 -0.03075945 0.044741299
0.11299785 -0.030322092 0.044151794
0.11138386 -0.029936837 0.043632489
0.10976274 -0.029574797 0.043144513
0.1081403 -0.029212261 0.042655852
0.10659248 -0.028522769 0.041726485
0.10501093 -0.027964566 0.040974088
0.10379513 -0.025775986 0.038024124
0.10271055 -0.022937587 0.034198266
0.11365525 -0.025757251 0.042437341
0.11210457 -0.025071912 0.041519415
0.11052138 -0.024508251 0.04076447
0.10905165 -0.023450239 0.039347365
0.10760266 -0.022276839 0.03777574
0.1065556 -0.019314686 0.033808276
