# .PCD v0.7 - Point Cloud Data file format
VERSION 0.7
FIELDS x y z
SIZE 4 4 4
TYPE F F F
COUNT 1 1 1
WIDTH 630
HEIGHT 1
VIEWPOINT 0 0 0 0 1 0 0
POINTS 630
DATA ascii
3.584319274772217179e-02 -2.990199340205568213e-02 3.015677060475929760e-02
3.414667691935112381e-02 -2.990199329718179477e-02 3.015677070963318496e-02
3.245053362000992203e-02 -2.990199319233077802e-02 3.015677081448409069e-02
3.075474049795677567e-02 -2.990199308750152163e-02 3.015677091931323606e-02
2.905929010261108780e-02 -2.990199298269335948e-02 3.015677102412128718e-02
2.736416380752136612e-02 -2.990199287790529237e-02 3.015677112890924327e-02
2.566935416210701371e-02 -2.990199277313676518e-02 3.015677123367777046e-02
2.397484626520683670e-02 -2.990199266838688974e-02 3.015677133842742386e-02
2.228062894094993973e-02 -2.990199256365499991e-02 3.015677144315931368e-02
2.063777217642541809e-02 -2.913985137856744956e-02 2.910971707185272539e-02
1.899650610856950389e-02 -2.827867568542152821e-02 2.792660209577069175e-02
1.740245807514591986e-02 -2.654773698738832621e-02 2.554856038138098029e-02
1.574821309562831478e-02 -2.567523433352236761e-02 2.434988267760251901e-02
1.408849566465705805e-02 -2.480252094518231587e-02 2.315090994613533404e-02
1.242342685410432329e-02 -2.392689942541015302e-02 2.194793326318722482e-02
1.075297313635741915e-02 -2.304832762737019092e-02 2.074091048189441455e-02
9.077091670577918520e-03 -2.216676340422640834e-02 1.952979945539423667e-02
7.395853237216351572e-03 -2.127953043245034426e-02 1.831087018648047682e-02
5.742457602961515209e-03 -1.950153479772454013e-02 1.586819626410029827e-02
4.377915188273583807e-03 -8.972372095010783255e-03 1.402761380737804764e-03
2.617205157879368485e-03 -8.989662722190150390e-03 1.426521782581624542e-03
8.906914015295187143e-04 -7.784547837132116399e-03 -2.291227226027814368e-04
6.828514802615123780e-02 -2.722877846250559841e-02 3.102078853809320247e-02
6.657667029063182862e-02 -2.722877835689208048e-02 3.102078864370649836e-02
6.486881095330196412e-02 -2.722877825131686524e-02 3.102078874928160257e-02
6.316155511300045045e-02 -2.722877814577895350e-02 3.102078885481940329e-02
6.145488786856609376e-02 -2.722877804027745707e-02 3.102078896032078870e-02
5.974880176941829713e-02 -2.722877793481193187e-02 3.102078906578631390e-02
5.804326701323467286e-02 -2.722877782938037949e-02 3.102078917121775525e-02
5.633829850117641480e-02 -2.722877772398391016e-02 3.102078927661411356e-02
5.463385898034053834e-02 -2.722877761862008139e-02 3.102078938197783131e-02
5.292994100014644654e-02 -2.722877751328844909e-02 3.102078948730935259e-02
5.122653711001354249e-02 -2.722877740798868018e-02 3.102078959260901048e-02
4.952363240878063233e-02 -2.722877730271977548e-02 3.102078969787780416e-02
4.782121199528651528e-02 -2.722877719748084679e-02 3.102078980311673284e-02
4.611925724307971292e-02 -2.722877709227056187e-02 3.102078990832690675e-02
4.441776815216021829e-02 -2.722877698708914274e-02 3.102079001350821486e-02
4.271672609607653909e-02 -2.722877688193536816e-02 3.102079011866187841e-02
4.101584050224531958e-02 -2.723141095352221708e-02 3.102439378044297147e-02
3.931565526293028662e-02 -2.723141084842140014e-02 3.102439388554367738e-02
3.761587980554808447e-02 -2.723141074334589629e-02 3.102439399061907022e-02
3.591649177835692236e-02 -2.723141063829437325e-02 3.102439409567048223e-02
3.421748745606650183e-02 -2.723141053326660899e-02 3.102439420069824649e-02
3.251885566280592749e-02 -2.723141042826182634e-02 3.102439430570291812e-02
3.082057404683340857e-02 -2.723141032327869304e-02 3.102439441068594039e-02
2.912263143227804968e-02 -2.723141021831643194e-02 3.102439451564809048e-02
2.742502036855925390e-02 -2.723141011337482098e-02 3.102439462058970143e-02
2.572772595451582739e-02 -2.723141000845263893e-02 3.102439472551166144e-02
2.403072956369627783e-02 -2.723140990354899760e-02 3.102439483041530277e-02
2.233402374552000830e-02 -2.723140979866323086e-02 3.102439493530095849e-02
2.063759732411612341e-02 -2.723140969379478360e-02 3.102439504016929472e-02
1.894143539832342932e-02 -2.723140958894265662e-02 3.102439514502131068e-02
1.734138220103571826e-02 -2.564064069717286731e-02 2.885279929005857280e-02
1.569009323990535471e-02 -2.477101456159602755e-02 2.766565928725717161e-02
1.403351622912988803e-02 -2.389846975787468519e-02 2.647452586967913302e-02
1.237161019051733271e-02 -2.302303789612347718e-02 2.527945172090095838e-02
1.070446825626262914e-02 -2.214189513888209504e-02 2.407660147653534199e-02
9.031779364749603981e-03 -2.126061540411261497e-02 2.287355103492516584e-02
7.353647824040182926e-03 -2.037628002400382332e-02 2.166630698096061458e-02
6.170661078914202458e-03 -6.120926793749648098e-03 2.206036994177762445e-03
4.339205967804014505e-03 -8.119002416694942603e-03 4.933634455240976102e-03
2.584329740443529200e-03 -8.066961512654180488e-03 4.862606565751326215e-03
8.612283505971887743e-04 -6.859222983795709716e-03 3.213884679401979305e-03
-8.695685577379073244e-04 -5.649018865032884307e-03 1.561812118052618992e-03
-2.609949704764287157e-03 -4.524067241492457647e-03 2.611757799775293876e-05
6.167771258460279238e-02 -2.377975390811526424e-02 3.084147386677871250e-02
5.996659734355207216e-02 -2.377975380233876557e-02 3.084147397255510015e-02
5.825603344546552431e-02 -2.377975369659635074e-02 3.084147407829740395e-02
5.654567071311501769e-02 -2.378247206126449242e-02 3.084516203439546800e-02
5.483621695153741149e-02 -2.378247195559080041e-02 3.084516214006916002e-02
5.312727728002099303e-02 -2.378247184994874974e-02 3.084516224571098864e-02
5.141886659972695617e-02 -2.378247174433945066e-02 3.084516235132017670e-02
4.971094020717171935e-02 -2.378247163876012760e-02 3.084516245689949976e-02
4.800351300351647643e-02 -2.378247153321166873e-02 3.084516256244784760e-02
4.629654773585824279e-02 -2.378247142769174260e-02 3.084516266796766271e-02
4.459004812948731689e-02 -2.378247132220057125e-02 3.084516277345872304e-02
4.288399928324250487e-02 -2.378247121673726650e-02 3.084516287892191677e-02
4.117838257067231444e-02 -2.378247111130071811e-02 3.084516298435846515e-02
3.947318681590585021e-02 -2.378247100589014895e-02 3.084516308976892329e-02
3.776839711778191833e-02 -2.378247090050467083e-02 3.084516319515429039e-02
3.606399857513932494e-02 -2.378247079514339557e-02 3.084516330051545463e-02
3.435998373739747314e-02 -2.378247068980587908e-02 3.084516340585286009e-02
3.265634142868546752e-02 -2.378247058449134421e-02 3.084516351116728394e-02
3.095305302255181926e-02 -2.378247047919868074e-02 3.084516361645983640e-02
2.925010361783532756e-02 -2.378247037392700047e-02 3.084516372173140564e-02
2.754748576395539897e-02 -2.378247026867574831e-02 3.084516382698254677e-02
2.584518083446054118e-02 -2.378247016344392506e-02 3.084516393221425901e-02
2.414318137877015727e-02 -2.378247005823097560e-02 3.084516403742720847e-02
2.244147622101335185e-02 -2.378246995303623379e-02 3.084516414262183925e-02
2.074004300944833415e-02 -2.378246984785825635e-02 3.084516424779970567e-02
1.903887801878480571e-02 -2.378246974269682124e-02 3.084516435296102976e-02
1.733796262257127421e-02 -2.378246963755092924e-02 3.084516445810692176e-02
1.563728937022713927e-02 -2.378246953241991424e-02 3.084516456323771472e-02
1.393683963530091552e-02 -2.378246942730277702e-02 3.084516466835485193e-02
1.226871981815812369e-02 -2.314392380839658259e-02 2.997898355040473639e-02
1.060776931699042649e-02 -2.226913468295077525e-02 2.879237038186166497e-02
8.941450672438818262e-03 -2.139153225642353995e-02 2.760191131256040098e-02
7.269842115537026445e-03 -2.050812410401925412e-02 2.640360239065231429e-02
6.085668876581264847e-03 -6.412001542654754971e-03 7.282614603348225302e-03
4.262176572208694822e-03 -8.400667893321500657e-03 9.980171893322009602e-03
2.519057357893249652e-03 -8.205074894087061033e-03 9.714846972154189686e-03
8.025646337958582122e-04 -7.002404517714722054e-03 8.083479052627517980e-03
-9.215565535701328997e-04 -5.797099964139795780e-03 6.448507576935380570e-03
-2.653226110583155328e-03 -4.583639998903987767e-03 4.802472550605174639e-03
-4.392637752212364896e-03 -3.367661760210860500e-03 3.153055239120794440e-03
-6.121960403421807320e-03 -9.251054637839928318e-04 -1.602147919945728916e-04
5.504012464441555841e-02 -2.031488213607257620e-02 3.066308642200743506e-02
5.332613347925442560e-02 -2.031488203011821980e-02 3.066308652796156942e-02
5.161266385473507745e-02 -2.031488192419628191e-02 3.066308663388350730e-02
4.989968596853512628e-02 -2.031488181830465312e-02 3.066308673977502508e-02
4.818720727123516900e-02 -2.031488171244388852e-02 3.066308684563567866e-02
4.647519423522251947e-02 -2.031488160661187869e-02 3.066308695146757746e-02
4.476364686049717767e-02 -2.031488150080862365e-02 3.066308705727072148e-02
4.305255024589794977e-02 -2.031488139503334622e-02 3.066308716304588788e-02
4.134189321555394037e-02 -2.031488128928515824e-02 3.066308726879396485e-02
3.963164969243306024e-02 -2.031488118356261641e-02 3.066308737451650668e-02
3.792181967653530938e-02 -2.031488107786560970e-02 3.066308748021340236e-02
3.621237709082859857e-02 -2.031488097219247280e-02 3.066308758588642824e-02
3.450332193531292779e-02 -2.031488086654331671e-02 3.066308769153547331e-02
3.279464303411740167e-02 -2.031488076091747530e-02 3.066308779716120370e-02
3.108631431020993097e-02 -2.031488065531328324e-02 3.066308790276528473e-02
2.937832831300991876e-02 -2.031488054973018542e-02 3.066308800834827153e-02
2.767067386664646966e-02 -2.031488044416762673e-02 3.066308811391071920e-02
2.596333606995838983e-02 -2.031488033862471898e-02 3.066308821945362695e-02
2.425630002178448541e-02 -2.031488023310035196e-02 3.066308832497777193e-02
2.254956199683445794e-02 -2.031488012759452566e-02 3.066308843048359822e-02
2.084309591807621820e-02 -2.031488002210535271e-02 3.066308853597254913e-02
1.913689806021946771e-02 -2.031487991663294412e-02 3.066308864144495772e-02
1.743095352210301263e-02 -2.031487981117607866e-02 3.066308874690171216e-02
1.572524926521080835e-02 -2.031487970573409019e-02 3.066308885234358961e-02
1.401977038838165927e-02 -2.031487960030597950e-02 3.066308895777158927e-02
1.231450199045437503e-02 -2.031487949489096945e-02 3.066308906318659933e-02
1.060943662084835697e-02 -2.031487938948850491e-02 3.066308916858895284e-02
8.904559378402411227e-03 -2.031487928409758670e-02 3.066308927397976003e-02
7.199855361955343966e-03 -2.031487917871743765e-02 3.066308937935979806e-02
6.001380751422051921e-03 -6.702560009414826325e-03 1.231511714434585514e-02
4.185687341097340045e-03 -8.684767365631951286e-03 1.498693324301503260e-02
2.454293474976644573e-03 -8.343915323722361777e-03 1.452750095034649469e-02
7.443619191599606250e-04 -7.146197196144732366e-03 1.291309713924304603e-02
-9.731422205630328726e-04 -5.946034552071211010e-03 1.129540587341437696e-02
-2.698134193961797614e-03 -4.737684886191306788e-03 9.666682667069048662e-03
-4.430803990721710051e-03 -3.526711579790120510e-03 8.034429661552100477e-03
-6.153341024322444772e-03 -1.085746318588820536e-03 4.744266640895333786e-03
-7.905293389744043331e-03 1.444986261082137347e-04 3.086019559790376121e-03
-9.665107514797805985e-03 1.380275342471093403e-03 1.420323021412372988e-03
-1.143286442448388819e-02 2.618644089254273943e-03 -2.488506325470929426e-04
5.008954931797942461e-02 -1.682844182051701498e-02 3.047819771322268778e-02
4.837199305000265681e-02 -1.682844171434227931e-02 3.047819781939731243e-02
4.665489871802290522e-02 -1.682844160819618740e-02 3.047819792554329332e-02
4.493827749791105830e-02 -1.682844150207940537e-02 3.047819803165996433e-02
4.322210331263502681e-02 -1.682844139599015687e-02 3.047819813774910180e-02
4.150636871161421382e-02 -1.682844128992810884e-02 3.047819824381103881e-02
3.979105506839712703e-02 -1.682844118389215105e-02 3.047819834984699661e-02
3.807615120711287104e-02 -1.682844107788139532e-02 3.047819845585753029e-02
3.636163850130995356e-02 -1.682844097189495347e-02 3.047819856184397214e-02
3.464751322569807612e-02 -1.682844086593238142e-02 3.047819866780643316e-02
3.293376420440634333e-02 -1.682844075999312405e-02 3.047819877374557951e-02
3.122036536040266597e-02 -1.682844065407540501e-02 3.047819887966318753e-02
2.950731296839674556e-02 -1.682844054817922430e-02 3.047819898555925722e-02
2.779459212722738826e-02 -1.682844044230347169e-02 3.047819909143489880e-02
2.608219166102369868e-02 -1.682844033644759207e-02 3.047819919729077842e-02
2.437009294333418452e-02 -1.682844023061025318e-02 3.047819930312800629e-02
2.265828852357824885e-02 -1.682844012479123297e-02 3.047819940894691548e-02
2.094675977530439936e-02 -1.682844001898908814e-02 3.047819951474894928e-02
1.923550297322233760e-02 -1.682843991320392973e-02 3.047819962053399667e-02
1.752449576559027278e-02 -1.682843980743409240e-02 3.047819972630372298e-02
1.581373256447276415e-02 -1.682843970167935410e-02 3.047819983205835026e-02
1.410319288077315457e-02 -1.682843959593849359e-02 3.047819993779921077e-02
1.239286553862055905e-02 -1.682843949021073371e-02 3.047820004352685963e-02
1.068274308743437893e-02 -1.682843938449563037e-02 3.047820014924185195e-02
8.972806900763121915e-03 -1.682843927879196233e-02 3.047820025494529794e-02
7.263045802735892606e-03 -1.682843917309917448e-02 3.047820036063797478e-02
5.917692395405911576e-03 -6.995225833814178173e-03 1.730774876641638649e-02
4.109930126829135222e-03 -8.965337057246114405e-03 1.994647958309769820e-02
2.390032503788228416e-03 -8.483409044417133948e-03 1.930097943208408662e-02
6.866118248254025891e-04 -7.290622092262388776e-03 1.770339221542549524e-02
-1.024323696042800380e-03 -6.095464380565962514e-03 1.610261237447752070e-02
-2.742688377259364443e-03 -4.892161793868421427e-03 1.449092703357401923e-02
-4.468673139834844488e-03 -3.686340933721221624e-03 1.287585940750868296e-02
-6.184601506946701271e-03 -1.255627880995757728e-03 9.620204123414466402e-03
-7.929717032589874565e-03 -3.063021284965827817e-05 7.979469059872013048e-03
-9.682656599234503586e-03 1.196854118641565989e-03 6.335404394754107216e-03
-1.144342719192885903e-02 2.432904793430612500e-03 4.679844173651859229e-03
-1.321213073222207018e-02 3.674550460156189580e-03 3.016813421832242881e-03
-1.498882880375815643e-02 4.918746010471708452e-03 1.350347701299825509e-03
-1.677358916038078004e-02 6.171592197766639920e-03 -3.276978689337184392e-04
4.339266965933703118e-02 -1.332292468030193966e-02 3.029046946116398242e-02
4.167182768531702691e-02 -1.332292457392425522e-02 3.029046956754166686e-02
3.995141039439104730e-02 -1.332292446757277204e-02 3.029046967389303902e-02
3.823140288539789849e-02 -1.332292436124649093e-02 3.029046978021909808e-02
3.651179025717638665e-02 -1.332292425494474575e-02 3.029046988652084327e-02
3.479256505914591485e-02 -1.332292414866698138e-02 3.029046999279849661e-02
3.307371611543558770e-02 -1.332292404241242068e-02 3.029047009905294630e-02
3.135522107430361444e-02 -1.332292393617973136e-02 3.029047020528552459e-02
2.963706875987909967e-02 -1.332292382996824731e-02 3.029047031149700864e-02
2.791925172158144647e-02 -1.332292372377741341e-02 3.029047041768762050e-02
2.620175505824946099e-02 -1.332292361760645250e-02 3.029047052385847039e-02
2.448456014343165094e-02 -1.332292351145414333e-02 3.029047063001066853e-02
2.276766325183771783e-02 -1.332292340532026387e-02 3.029047073614454799e-02
2.105104575701616937e-02 -1.332292329920370388e-02 3.029047084226099695e-02
1.933469275780581170e-02 -1.332292319310346418e-02 3.029047094836123666e-02
1.761859680362604791e-02 -1.332292308701898964e-02 3.029047105444548915e-02
1.590274113067052797e-02 -1.332292298094950311e-02 3.029047116051486466e-02
1.418711270042322288e-02 -1.332292287489400540e-02 3.029047126657025135e-02
1.247169661172292839e-02 -1.332292276885171933e-02 3.029047137261253742e-02
1.075648541398904930e-02 -1.332292266282197879e-02 3.029047147864205591e-02
9.041460480770093303e-03 -1.332292255680389559e-02 3.029047158466013911e-02
7.727947131267032602e-03 -3.319441270083323126e-03 1.697637819220698674e-02
5.834804974121683349e-03 -7.284298657159293811e-03 2.225339718652086241e-02
4.034802484021177832e-03 -9.245232415517223856e-03 2.486328901742573816e-02
2.326268856427723269e-03 -8.623524445830033081e-03 2.403581978968716282e-02
6.293087628880048023e-04 -7.435679205875289632e-03 2.245487004336976788e-02
-1.075108430553556316e-03 -6.245515889900521422e-03 2.087084357661583844e-02
-2.786895179697402095e-03 -5.047155015378224086e-03 1.927587999974555988e-02
-4.506247062161747655e-03 -3.846476064829240649e-03 1.767783970244529712e-02
-6.215617054227200525e-03 -1.425952000470132042e-03 1.445624961297220512e-02
-7.953948825491731142e-03 -2.061383887012047111e-04 1.283275261244920529e-02
-9.700042704805201046e-03 1.016172423125349944e-03 1.120593654705548392e-02
-1.145390707419323244e-02 2.246859917542809448e-03 9.567941027117332631e-03
-1.321564106124113736e-02 3.483131867208610899e-03 7.922548733448442349e-03
-1.498530654063644739e-02 4.722069604244705232e-03 6.273584493758033176e-03
-1.676297085876008591e-02 5.969510464386762472e-03 4.613314358940523441e-03
-1.855877899625824057e-02 8.478384822891538164e-03 1.274145067721055291e-03
-2.035671401616626769e-02 9.739818431276137112e-03 -4.047539786591336508e-04
4.003208177786526933e-02 -1.059781421783700939e-02 3.115757684475783940e-02
3.830950754385648027e-02 -1.059781411135218843e-02 3.115757695124266036e-02
3.658732819061932817e-02 -1.059781400489179237e-02 3.115757705770294539e-02
3.486553626757321611e-02 -1.059781389845526611e-02 3.115757716413936063e-02
3.314412059884724870e-02 -1.059781379204205454e-02 3.115757727055246118e-02
3.142306255798993364e-02 -1.059781368565093640e-02 3.115757737694346829e-02
2.970234724384008054e-02 -1.059781357928102352e-02 3.115757748331338117e-02
2.798196720581708555e-02 -1.059781347293176079e-02 3.115757758966242186e-02
2.626190381746945982e-02 -1.059781336660214901e-02 3.115757769599203364e-02
2.454214962821660642e-02 -1.059781326029163306e-02 3.115757780230243856e-02
2.282268973689733152e-02 -1.059781315399932478e-02 3.115757790859463583e-02
2.110350924235044126e-02 -1.059781304772422494e-02 3.115757801486962464e-02
1.938441815482672831e-02 -1.060064731566923157e-02 3.116131865511317933e-02
1.766577037679251810e-02 -1.060064720942710537e-02 3.116131876135519452e-02
1.594736287998256563e-02 -1.060064710319974512e-02 3.116131886758233271e-02
1.422918262588081066e-02 -1.060064699698659574e-02 3.116131897379548210e-02
1.251121471332606976e-02 -1.060064689078643596e-02 3.116131907999541983e-02
1.079345169173774426e-02 -1.060064678459904375e-02 3.116131918618281205e-02
9.512402387581785773e-03 -4.900018884961276910e-04 1.778925802785158439e-02
7.682577085824336682e-03 -2.493172041669766692e-03 2.043859405945880336e-02
5.793664993721404227e-03 -6.456064345725320841e-03 2.567981457241563792e-02
3.997516315397056999e-03 -8.415865414535983469e-03 2.827178872323088399e-02
2.294613463002624990e-03 -7.723461406893505909e-03 2.735603762355565127e-02
6.007835453142439802e-04 -6.538814053969277396e-03 2.578925448806812515e-02
-1.100319070520843281e-03 -5.346074509539611164e-03 2.421176605017094641e-02
-2.808902069320837538e-03 -4.151006352372199615e-03 2.263121142854696011e-02
-4.524896533336366863e-03 -2.947635269554660375e-03 2.103965647649497228e-02
-6.231013414379206819e-03 -5.279277925074321587e-04 1.783941903479191460e-02
-7.966011050128365273e-03 6.885140766536013146e-04 1.623058913899066980e-02
-9.708673005173373144e-03 1.913374775264653493e-03 1.461062193547213450e-02
-1.145912267963811702e-02 3.140774820768577058e-03 1.298729352021876782e-02
-1.321738789690176351e-02 4.376635842565312906e-03 1.135278565039177234e-02
-1.498355806387415348e-02 5.618007562661619936e-03 9.710975837275870326e-03
-1.675768603305407764e-02 6.862066143562772780e-03 8.065615151556682072e-03
-1.854989018370077972e-02 9.369928985928477339e-03 4.748783690768032528e-03
-2.034424613035271112e-02 1.063391248121636767e-02 3.077070681050342316e-03
-2.214677257000645730e-02 1.190065659427297362e-02 1.401711968302965516e-03
3.501163118414924585e-02 -7.064100938271256069e-03 3.097149220550454718e-02
3.328532793449633098e-02 -7.061261188983203319e-03 3.096775704659993078e-02
3.155912526773684001e-02 -7.061261082274117307e-03 3.096775715330901679e-02
2.983326532768481101e-02 -7.061260975586125532e-03 3.096775725999689755e-02
2.810774438904993858e-02 -7.061260868919116973e-03 3.096775736666379508e-02
2.638254382538073387e-02 -7.061260762271870384e-03 3.096775747331081963e-02
2.465744384460494959e-02 -7.064100298203590533e-03 3.097149284557165760e-02
2.293285050325439417e-02 -7.064100191593869482e-03 3.097149295218126763e-02
2.120854028396652186e-02 -7.064100085001800977e-03 3.097149305877322512e-02
1.948450201087043726e-02 -7.064099978426385817e-03 3.097149316534852925e-02
1.776071333222434961e-02 -7.064099871866513780e-03 3.097149327190840129e-02
1.603717052273796045e-02 -7.064099765321740776e-03 3.097149337845295225e-02
1.431385495595977574e-02 -7.064099658791067604e-03 3.097149348498351440e-02
1.259075359337375431e-02 -7.064099552273717109e-03 3.097149359150086489e-02
1.124961167252589225e-02 1.197474448698110372e-03 2.011357174022854188e-02
9.414164906779893399e-03 -8.108428918741639180e-04 2.275304014298107358e-02
7.592280060083410331e-03 -2.804666992618609633e-03 2.537345289503756263e-02
5.711796434883772977e-03 -6.748930411461739887e-03 3.055726939129821407e-02
3.911706404978371188e-03 -9.046411876576732070e-03 3.357678131244368203e-02
2.231585556336080842e-03 -7.868950555036779981e-03 3.202928036251095900e-02
5.441435808904472593e-04 -6.689192230886154000e-03 3.047876591241560629e-02
-1.150517075986052726e-03 -5.501457618985683418e-03 2.891776743091134527e-02
-2.852595717217566024e-03 -4.311246880449703944e-03 2.735351310479738896e-02
-4.562032738268741866e-03 -3.112954487087260524e-03 2.577862723326973526e-02
-6.261667612752121886e-03 -7.034307302673514783e-04 2.261187019865285031e-02
-7.989958793917823973e-03 5.079061077024604742e-04 2.101985162899422388e-02
-9.725856086711944654e-03 1.727545871366142904e-03 1.941691702261860719e-02
-1.146947893314265166e-02 2.949735518635199227e-03 1.781063174121289006e-02
-1.322085678639839043e-02 4.180270238441030628e-03 1.619338827623406640e-02
-1.498007270870121282e-02 5.413423330451805349e-03 1.457269403743821634e-02
-1.674719299868893119e-02 6.654989983601033998e-03 1.294094151628477629e-02
-1.853224272781998222e-02 9.152036903545934798e-03 9.659149896214413999e-03
-2.031942655856858182e-02 1.041050443618607435e-02 8.005185980169082782e-03
-2.211471615539745139e-02 1.167166936635677388e-02 6.347681728238074861e-03
-2.391825680474678542e-02 1.294161137408300633e-02 4.678639773419202008e-03
-2.573002010116015592e-02 1.421424551098871003e-02 3.006052214367671560e-03
-2.755019137794650907e-02 1.549566726217610491e-02 1.321937489146218780e-03
2.823405056460399215e-02 -3.507981233619950068e-03 3.077898554017033383e-02
2.650368674858111923e-02 -3.507981126653625381e-03 3.077898564713665852e-02
2.477362840636272018e-02 -3.507981019706063464e-03 3.077898575408410942e-02
2.304386808736819808e-02 -3.507980912777042271e-03 3.077898586101301959e-02
2.131438716514606063e-02 -3.507980805865229534e-03 3.077898596792472130e-02
1.958518191440600936e-02 -3.507980698970514233e-03 3.077898607481943660e-02
1.785622625811595504e-02 -3.507980592091120009e-03 3.077898618169860878e-02
1.612751647098559921e-02 -3.507980485227046863e-03 3.077898628856268193e-02
1.484013235303702910e-02 4.910100518215831933e-03 1.978473512132339351e-02
1.298527496154801113e-02 2.881705477052576292e-03 2.243388150322334074e-02
1.114419928123676698e-02 8.681461187304284621e-04 2.506364032784347273e-02
9.316737674044429929e-03 -1.130751412400821110e-03 2.767425920800126171e-02
7.502728089845620701e-03 -3.115134630232496704e-03 3.026592780458592369e-02
5.630602151072043940e-03 -7.040921945894673684e-03 3.539311473257356067e-02
3.842874492998048230e-03 -9.187570455796212343e-03 3.819669774870171342e-02
2.169038209780345741e-03 -8.014929674494797318e-03 3.666519679797553000e-02
4.879357477931538928e-04 -6.840060379178503069e-03 3.513078244587697352e-02
-1.200325790977519944e-03 -5.657109429016204949e-03 3.358582084205152807e-02
-2.895954091356393867e-03 -4.471935233191115522e-03 3.203794056850572947e-02
-4.598883029550093066e-03 -3.278679382511140439e-03 3.047951304324181265e-02
-6.292084326271341413e-03 -8.791496853082225726e-04 2.734566743317290438e-02
-8.013721672588172348e-03 3.270083644587584715e-04 2.577038643270124219e-02
-9.742904594563468051e-03 1.541574707015880286e-03 2.418412617519460905e-02
-1.147975462967857664e-02 2.758522345872371773e-03 2.259476812381555622e-02
-1.322429849536449660e-02 3.983836130694640154e-03 2.099447296227630044e-02
-1.497661931205093375e-02 5.211705067483585196e-03 1.939083239406425019e-02
-1.673678262167285075e-02 6.447950686963910272e-03 1.777626525240960653e-02
-1.851473404149421575e-02 8.934181684363551312e-03 1.452917629826466772e-02
-2.029480349835148523e-02 1.018720174288822999e-02 1.289269278970328614e-02
-2.208291399436813907e-02 1.144289285718036453e-02 1.125272689718048724e-02
-2.387920988465722788e-02 1.270724514527177273e-02 9.601444572769901598e-03
-2.568366229810430112e-02 1.397423161066224662e-02 7.946727279624643536e-03
-2.749645936198797519e-02 1.525010052071407163e-02 6.280409063282865745e-03
-2.931761690873340570e-02 1.653174354681163916e-02 4.606546559195456858e-03
-3.118612012572529249e-02 1.910958068196078052e-02 1.239823743406920364e-03
-3.302257464272609355e-02 2.023089717267956278e-02 -2.246531502759774312e-04
3.017284042648096104e-02 2.342395458234280969e-02 2.710887816252949278e-04
2.820263501021116545e-02 2.126515725365873966e-02 3.072891109248021557e-03
2.624760270102673501e-02 1.912268655185167532e-02 5.853509369476594948e-03
2.430754978383541098e-02 1.699631593772310545e-02 8.613222785287311112e-03
2.142087107202442914e-02 6.794749150473844423e-05 3.058378147115059509e-02
1.968646531602772504e-02 6.794759872097433373e-05 3.058378157836671996e-02
1.795230915448101788e-02 6.794770592177812318e-05 3.058378168556741272e-02
1.657993816535825032e-02 6.596207083398142323e-03 2.211105080941377921e-02
1.471940529317004344e-02 4.562612171289393004e-03 2.475036117261952828e-02
1.287270069829486198e-02 2.543947772434496102e-03 2.737029451521899581e-02
1.103965674267448106e-02 5.399188590407000277e-04 2.997123015898062182e-02
9.220115101472517102e-03 -1.449548325832994422e-03 3.255326293435367724e-02
7.413913724564898805e-03 -3.424632906195324011e-03 3.511663518580110388e-02
5.550067241159546000e-03 -7.332139047541041954e-03 4.018800914080478126e-02
3.774565982007991108e-03 -9.329266421268855858e-03 4.277999910957097640e-02
2.106967698075074696e-03 -8.161409301791655579e-03 4.126428215543609390e-02
4.321609773729456067e-04 -6.991234106277777194e-03 3.974557277454848769e-02
-1.249754528686471827e-03 -5.813214331815808045e-03 3.821666912188581566e-02
-2.938979985674432249e-03 -4.632950238261823728e-03 3.668486787291613815e-02
-4.635447407153063873e-03 -3.444546537948456333e-03 3.514249303042171757e-02
-6.322265883211386495e-03 -1.055121535913361441e-03 3.204136391576684062e-02
-8.037298754789479194e-03 1.460842648003390920e-04 3.048237267412257090e-02
-9.759820857001803504e-03 1.355471819122211485e-03 2.891276569210332603e-02
-1.148995023487852339e-02 2.567240669739789816e-03 2.734006091620799772e-02
-1.322771325660010953e-02 3.787412544826729288e-03 2.575645590862818413e-02
-1.497319292618029540e-02 5.009970984574341202e-03 2.416975837553314577e-02
-1.672645373781940503e-02 6.240964058917719548e-03 2.257210792718866710e-02
-1.849736365903093330e-02 8.716489769073909599e-03 1.935924221851670346e-02
-2.027037415570048448e-02 9.964062353422620255e-03 1.774007053004456047e-02
-2.205136143026916254e-02 1.121424277330040908e-02 1.611752182475489903e-02
-2.384047216615516052e-02 1.247311597712275066e-02 1.448368829769874910e-02
-2.563767423261761533e-02 1.373459174812297068e-02 1.284647248547787779e-02
-2.744315389428413771e-02 1.500483932838625467e-02 1.119788228941476227e-02
-2.925684409581731649e-02 1.627772635431012915e-02 9.545862392974613364e-03
-3.111766576275670770e-02 1.884711832614704985e-02 6.211155380516197866e-03
-3.295239733553994438e-02 2.013750682404080727e-02 4.536428863534447409e-03
-3.479576226875661510e-02 2.143691474383102591e-02 2.849985519485676022e-03
3.213435872173986407e-02 2.732990832138415538e-02 -1.371946213445385254e-04
2.998266092549204537e-02 2.298501820006237928e-02 5.466594326148044303e-03
2.802160482091731880e-02 2.083716850299299761e-02 8.236775975165588903e-03
2.607558398769864449e-02 1.870540308858803513e-02 1.098620556209761734e-02
2.414420727041264800e-02 1.658652406622973530e-02 1.371901874779479780e-02
2.222771681282124934e-02 1.448648994384071909e-02 1.642751846158019280e-02
2.032572518479333623e-02 1.240203434221032186e-02 1.911594046309805783e-02
1.831822592144318265e-02 8.279094681561738334e-03 2.443347318359045950e-02
1.645201943120224580e-02 6.240394728891152099e-03 2.706287377107918779e-02
1.459968219647673343e-02 4.216530459152156851e-03 2.967313968238005639e-02
1.276105589243091074e-02 2.207433383762058554e-03 3.226437101629664461e-02
1.093598033158325357e-02 2.129454521128115729e-04 3.483674689700944072e-02
9.124286013231038342e-03 -1.767223095229919494e-03 3.739065191464119309e-02
7.325829513697120279e-03 -3.732993232948511597e-03 3.992599650711525783e-02
5.470186117247300556e-03 -7.622497422509755260e-03 4.494245837815513678e-02
3.706872141597726544e-03 -9.468438859351668846e-03 4.732325569400108733e-02
2.045370295961241106e-03 -8.308220849400971275e-03 4.582687360962545142e-02
3.768844621944156259e-04 -7.140016014934746913e-03 4.432018661793313274e-02
-1.298807945693213756e-03 -5.969677496808767359e-03 4.281074427558650974e-02
-2.981617520838699201e-03 -4.791346885800851219e-03 4.129100229428572799e-02
-4.671733321623077959e-03 -3.610735077225646350e-03 3.976831530145774618e-02
-6.352214146186141441e-03 -1.231177694556717661e-03 3.669929682116712666e-02
-8.060663032181409476e-03 -3.215825730507049229e-05 3.515287060947203113e-02
-9.776606736638885492e-03 1.169253012951787518e-03 3.360335714060236345e-02
-1.150005294307402358e-02 2.378872378608454241e-03 3.204325427312948449e-02
-1.323110153572938999e-02 3.590962602585956454e-03 3.047997458640316903e-02
-1.496979785847704983e-02 4.811255653614177064e-03 2.890610023272854878e-02
-1.671620611426473044e-02 6.034130198396048250e-03 2.732890681414823497e-02
-1.848012878642658202e-02 8.498913742708946728e-03 2.414997459137580016e-02
-2.024613759925977807e-02 9.741186366722831558e-03 2.254775647471907174e-02
-2.202005939439118445e-02 1.098589297060115211e-02 2.094240895404808622e-02
-2.380203899259383804e-02 1.223924494326023016e-02 1.932589778381699208e-02
-2.559204752275849593e-02 1.349521528816799432e-02 1.770602013347999382e-02
-2.739026938686501406e-02 1.475991002717502720e-02 1.607488927150724223e-02
-2.919663659825601568e-02 1.602721787007965748e-02 1.444038666108149460e-02
-3.104976088262331388e-02 1.858520913211825221e-02 1.114123052008075820e-02
-3.287700089586859109e-02 1.986992888502103760e-02 9.484268901878145641e-03
-3.471280348902186508e-02 2.116345205735348234e-02 7.815964509976125463e-03
3.392565736698088807e-02 2.905723453429709391e-02 2.273583334457374150e-03
3.193510441342040790e-02 2.687114712181681853e-02 5.075491040813506771e-03
2.979410937365458562e-02 2.254836299842588598e-02 1.061599648463595891e-02
2.784211689912086812e-02 2.041122385717764054e-02 1.335516331610608898e-02
2.590481324400732005e-02 1.828708701178949347e-02 1.607766106273289530e-02
2.398245172795327590e-02 1.618175291959744744e-02 1.877605607170818036e-02
2.207463747024310599e-02 1.409205003174307524e-02 2.145442605195491126e-02
2.018119910752504131e-02 1.201782556597719154e-02 2.411295539600843973e-02
1.818312855152072124e-02 7.914926709388314663e-03 2.937163003289722241e-02
1.632516053959132823e-02 5.885957399148655789e-03 3.197215475587678046e-02
1.448095002447687477e-02 3.871765820003481018e-03 3.455373973187658709e-02
1.265032936811718092e-02 1.872167579585970465e-03 3.711662203700594187e-02
1.083315142154546266e-02 -1.128794689281287233e-04 3.966084381813939075e-02
9.029244821415805672e-03 -2.083733573565837993e-03 4.218688976419338044e-02
7.238458693470469982e-03 -4.040442149509493319e-03 4.469479675368859262e-02
5.403557705078875298e-03 -7.563074010188075569e-03 4.920973731622979574e-02
3.707146184836184258e-03 -7.563073905320516488e-03 4.920973742109724380e-02
2.010868775044237847e-03 -7.563073800461284080e-03 4.920973752595647621e-02
3.219516028384918072e-04 -7.291943144613899364e-03 4.886223675284373513e-02
-1.347486973294915319e-03 -6.126377751692557716e-03 4.736833606269852393e-02
-3.023988699973593000e-03 -4.952836070935218160e-03 4.586420422223225213e-02
-4.707741704254702828e-03 -3.777144901440987468e-03 4.435733283617715461e-02
-6.381933306117231613e-03 -1.407412991429546345e-03 4.132004566859170946e-02
-8.083879697212616178e-03 -2.133984868707416993e-04 3.978968794479009752e-02
-9.793262699109293520e-03 9.830499975232998011e-04 3.825620081694480756e-02
-1.151009115946942732e-02 2.187590673561334853e-03 3.671234556149693962e-02
-1.323446374017795725e-02 3.394459962373086448e-03 3.516550841602539279e-02
-1.496642462095568518e-02 4.609711202282706921e-03 3.360791855284783747e-02
-1.670603765550111516e-02 5.827327933448089858e-03 3.204729938443362514e-02
-1.846302942365445759e-02 8.281627461120932843e-03 2.890163156622949092e-02
-2.022208963804521947e-02 9.518457879195918458e-03 2.731639336322655431e-02
-2.198900229876879844e-02 1.075783291255782981e-02 2.572788351054622336e-02
-2.376391036394460976e-02 1.200582170461128584e-02 2.412834698557497770e-02
-2.554678403114539476e-02 1.325631823348338845e-02 2.252558622615319361e-02
-2.733780304573292519e-02 1.451538637422289391e-02 2.091184094131548488e-02
-2.913690500899179456e-02 1.577711503404788385e-02 1.929468702950953851e-02
-3.098239430942359776e-02 1.832384783170759590e-02 1.603054965594041814e-02
-3.280220236778351450e-02 1.960279347249094251e-02 1.439133186313590329e-02
-3.463050595082343974e-02 2.089056360613272822e-02 1.274079237004466236e-02
3.382186732540427843e-02 2.983137344036035365e-02 5.890272697109955047e-03
3.183598961005912331e-02 2.764706145614903576e-02 8.672460945262971954e-03
2.970031428264835807e-02 2.332762799225351902e-02 1.417417021246014652e-02
2.775283685887122709e-02 2.119229062120286944e-02 1.689398110230466710e-02
2.582018236492527458e-02 1.907266874817192814e-02 1.959376696337156165e-02
2.390219061332636910e-02 1.696887827695492401e-02 2.227339081836576806e-02
2.199867906485508673e-02 1.488062417975999363e-02 2.493323198905650351e-02
2.010929754227417515e-02 1.280486134819458499e-02 2.757715745006816821e-02
1.811591339939337339e-02 8.704717827847319178e-03 3.279955945321444410e-02
1.626204693105736190e-02 6.677149893279721304e-03 3.538209800735658828e-02
1.442187649225613530e-02 4.664227981015289792e-03 3.794598657416359266e-02
1.259524189550685624e-02 2.665909944230326900e-03 4.049126730051089140e-02
1.078198854126604517e-02 6.820166589156517745e-04 4.301818253086098220e-02
8.981952516763180502e-03 -1.287683682487217318e-03 4.552700621983418738e-02
7.194988535677269287e-03 -3.243143664777514701e-03 4.801770148892814394e-02
5.433173983409061991e-03 -4.844738870634190953e-03 5.005767821298057196e-02
3.734186424924984538e-03 -4.844738765607425890e-03 5.005767831800722600e-02
2.035332976891651713e-03 -4.844738660588876478e-03 5.005767842302566439e-02
3.366015321155935158e-04 -4.844738555577987604e-03 5.005767852803655327e-02
-1.362021879241809286e-03 -4.844738450573649047e-03 5.005767863304066978e-02
-3.045081971915074293e-03 -4.084662428685659208e-03 4.908956531423980252e-02
-4.725617256164825128e-03 -2.906405567606795692e-03 4.758879995184339684e-02
-6.396687529234374066e-03 -5.375060504853035326e-04 4.457150092778738859e-02
-8.095435757966298884e-03 6.533579820067192401e-04 4.305468288040625868e-02
-9.801531656284830779e-03 1.852156155550788164e-03 4.152776012328629474e-02
-1.151508791412965416e-02 3.053435724123199080e-03 3.999767108361262924e-02
-1.323613252948012235e-02 4.262839094491543968e-03 3.845724552646434535e-02
-1.496474524673527956e-02 5.474613224468627415e-03 3.691379593242827273e-02
-1.670098962876180593e-02 6.694727158744639972e-03 3.535972006125354117e-02
-1.845454109009802765e-02 9.148115268454604099e-03 3.223480429823755156e-02
-2.021012002003724078e-02 1.038153706524536091e-02 3.066377485297222538e-02
-2.197358585534158262e-02 1.162337769165977530e-02 2.908202956849892384e-02
-2.374493067967015786e-02 1.286777873843736320e-02 2.749702843941248531e-02
-2.552431561193194837e-02 1.412081461734204790e-02 2.590102171145469701e-02
-2.731168849795724551e-02 1.537625813435694599e-02 2.430194353141534869e-02
-2.910725702278766855e-02 1.664048926576844334e-02 2.269167535998961593e-02
-3.094886643204616816e-02 1.918303899810114288e-02 1.945319488244068307e-02
-3.276507585938764899e-02 2.046439754850548631e-02 1.782111044278744671e-02
-3.458954984330381288e-02 2.174857466862456512e-02 1.618543825200680075e-02
3.361589258996875579e-02 2.936014202585213173e-02 1.106014243361086447e-02
3.163929457150452262e-02 2.718694099238350148e-02 1.381095761582995518e-02
2.951416553845487289e-02 2.288935010915837953e-02 1.925080583563942849e-02
2.757561763430448065e-02 2.076451255999300916e-02 2.194040269816643907e-02
2.565178090128152066e-02 1.865555909622051978e-02 2.460989023815984833e-02
2.374247280016789086e-02 1.656212093309838984e-02 2.725974260782826342e-02
2.184733197785412862e-02 1.448118457235181289e-02 2.989377409822280285e-02
1.996657822637340832e-02 1.241847671439999523e-02 3.250473018067623343e-02
1.798249240574247357e-02 8.338221216244390277e-03 3.766947001714127108e-02
1.613675451968807351e-02 6.320194263571332627e-03 4.022387027672036375e-02
1.430460462975501057e-02 4.316897626907234553e-03 4.275962054893900355e-02
1.248587696053086830e-02 2.327999399983959883e-03 4.527714757078515895e-02
1.068041877511470908e-02 3.534258258600653235e-04 4.777654617270787885e-02
8.901214567716995985e-03 -1.294957632648086054e-03 4.986304776914773917e-02
7.196758283074776441e-03 -1.294957527283258081e-03 4.986304787451256715e-02
5.492464048560539991e-03 -1.294957421928422114e-03 4.986304797986729209e-02
3.788318825658242017e-03 -1.294957316582912021e-03 4.986304808521280219e-02
2.084309575851837903e-03 -1.294957211245617579e-03 4.986304819054987458e-02
3.804213979801338019e-04 -1.294957105915872653e-03 4.986304829587950849e-02
-1.323357815150340289e-03 -1.294957000592900087e-03 4.986304840120237003e-02
-3.027039239410479754e-03 -1.294956895276033748e-03 4.986304850651923637e-02
-4.730635913316329211e-03 -1.294956789964274435e-03 4.986304861183088466e-02
-6.426066760364444394e-03 -7.181615207193514649e-04 4.913295442788456757e-02
-8.118386534359405687e-03 4.676765055556808548e-04 4.763193091388728817e-02
-9.817996701600027049e-03 1.661511893145672936e-03 4.612078161669896925e-02
-1.152501088334792478e-02 2.857770723884267561e-03 4.460657667245560010e-02
-1.323945591342792077e-02 4.062063794421866270e-03 4.308219852980998965e-02
-1.496141095416766813e-02 5.268806649873725156e-03 4.155470678818762309e-02
-1.669093852068617712e-02 6.483668038800294298e-03 4.001695755444079072e-02
-1.843764056877564284e-02 8.926698572152225175e-03 3.692458969950751513e-02
-2.018635285667983240e-02 1.015476245654844956e-02 3.537011869937334296e-02
-2.194289197963983015e-02 1.139127151235552748e-02 3.380495820179840738e-02
-2.370724908999542399e-02 1.263038313535558288e-02 3.223649971274100690e-02
-2.547957925304843163e-02 1.387783456270752502e-02 3.065749924026528461e-02
-2.725984055919116258e-02 1.512792016737662948e-02 2.907514809274025502e-02
-2.904823231155227725e-02 1.638667748268596291e-02 2.748182822482880816e-02
-3.088229521255700383e-02 1.891787918839604732e-02 2.427785548420002826e-02
-3.269116954258236701e-02 2.019371123920243871e-02 2.266291954560695210e-02
-3.450823019807898462e-02 2.147204049015660754e-02 2.104483312956750840e-02
3.341167246360304821e-02 2.889145520998581684e-02 1.618442508287631920e-02
3.144427591094300228e-02 2.672935459067615760e-02 1.890419383725450153e-02
2.932958886416780347e-02 2.245326911371503531e-02 2.428319253420008206e-02
2.739989969914540663e-02 2.033906836375243277e-02 2.694271234662326542e-02
2.548479132010107728e-02 1.824050408661137546e-02 2.958254957346662106e-02
2.358389492334671961e-02 1.615441000175799058e-02 3.220670289830640520e-02
2.169743402620774586e-02 1.408657076151931253e-02 3.480789145067209045e-02
1.982504355028506110e-02 1.203389384231201564e-02 3.739001908370043203e-02
1.785016664497591360e-02 7.973252412175058090e-03 4.249800291085947812e-02
1.601249773657267839e-02 5.964924492114054289e-03 4.502433863280597137e-02
1.418829575236780355e-02 3.971042397014845626e-03 4.753249851956509175e-02
1.239107417839794417e-02 2.275143652846867148e-03 4.966580947994148065e-02
1.068106721121101638e-02 2.275143758554865059e-03 4.966580958564925652e-02
8.971246508539011677e-03 2.275143864251316650e-03 4.966580969134570811e-02
7.261600894511034687e-03 2.275143969936888055e-03 4.966580979703116849e-02
5.552119193256190022e-03 2.275144075612467454e-03 4.966580990270663687e-02
3.842875910535503703e-03 2.277983823909757177e-03 4.966224333014557235e-02
2.133669880762745219e-03 2.277983929568239141e-03 4.966224343580394329e-02
4.245849229246850126e-04 2.277984035219171588e-03 4.966224354145487574e-02
-1.284390138849568833e-03 2.277984140863442697e-03 4.966224364709892480e-02
-2.993267411753488053e-03 2.277984246501496557e-03 4.966224375273697866e-02
-4.702059934303117264e-03 2.277984352134443391e-03 4.966224385836981448e-02
-6.410783073320936755e-03 2.277984457763060355e-03 4.966224396399832042e-02
-8.119446607693980855e-03 2.277984563387902561e-03 4.966224406962316262e-02
-9.828064507260869664e-03 2.277984669010080232e-03 4.966224417524511825e-02
-1.153485795203068945e-02 2.662247955371066510e-03 4.917887245403562702e-02
-1.324275374647797612e-02 3.861509751326153150e-03 4.767028357641223124e-02
-1.495810221703576005e-02 5.063163380315538475e-03 4.615869173531073066e-02
-1.668096518033111708e-02 6.272919737733695378e-03 4.463691089071764040e-02
-1.842086996925689640e-02 8.705566352843807643e-03 4.157681172100191613e-02
-2.016277009750840066e-02 9.928388228569229312e-03 4.003859360129891076e-02
-2.191243605918316573e-02 1.115964473901731591e-02 3.848975974114210441e-02
-2.366985807529775609e-02 1.239332996099395956e-02 3.693787550230620553e-02
-2.543519400512497461e-02 1.363544981770248299e-02 3.537537552302560950e-02
-2.720839774810227332e-02 1.488011428973090577e-02 3.380968818776763918e-02
-2.898966581338995388e-02 1.613332403192657694e-02 3.223324286641515712e-02
-3.081625484932842829e-02 1.865355176400274040e-02 2.906297180407124703e-02
-3.261784064817292716e-02 1.992363604429780999e-02 2.746530027046123479e-02
-3.442755503049035187e-02 2.119633342852145219e-02 2.586434128209635919e-02
3.320920322105332112e-02 2.842548158031976691e-02 2.126354211333825184e-02
3.125091127667120605e-02 2.627427590949338310e-02 2.395281761735990056e-02
2.914656935866177107e-02 2.201959047195811703e-02 2.927170436135517750e-02
2.722566442698029845e-02 1.991592642258899204e-02 3.190155278714412734e-02
2.531899755462804769e-02 1.782462193011158380e-02 3.451594385028633472e-02
2.342683323712307919e-02 1.575170925949398448e-02 3.710733853076120248e-02
2.154878031903484370e-02 1.369393256817819093e-02 3.967981453752345011e-02
1.968468233817211033e-02 1.165121809922298191e-02 4.223346670102223754e-02
1.771892866654631651e-02 7.609953661407042880e-03 4.728555326103023315e-02
1.590321102613060159e-02 5.868541605772215064e-03 4.946253364432073862e-02
1.418755651885120553e-02 5.868541711829267093e-03 4.946253375037767963e-02
1.247211249047367257e-02 5.868541817873329514e-03 4.946253385642174205e-02
1.075687521570770425e-02 5.868541923904624369e-03 4.946253396245292588e-02
9.041824205456659019e-03 5.868542029924372905e-03 4.946253406847256340e-02
7.326948283849641502e-03 5.868542135933352277e-03 4.946253417448143175e-02
5.612236275015756309e-03 5.868542241932228620e-03 4.946253428048019707e-02
3.897673277793809593e-03 5.868542347921779090e-03 4.946253438646963652e-02
2.183246253667756737e-03 5.868542453903002887e-03 4.946253449245074929e-02
4.689421641215548581e-04 5.868542559876566145e-03 4.946253459842431255e-02
-1.245252029360844129e-03 5.868542665843468065e-03 4.946253470439099242e-02
-2.959348433972908490e-03 5.868542771804152736e-03 4.946253481035167709e-02
-4.673359156908108228e-03 5.868542877759619358e-03 4.946253491630703270e-02
-6.387300496311499112e-03 5.868542983710867134e-03 4.946253502225816945e-02
-8.101182231070114606e-03 5.868543089658340151e-03 4.946253512820553144e-02
-9.815017865361286634e-03 5.868543195603037610e-03 4.946253523415011788e-02
-1.152882136902363443e-02 5.868543301545625646e-03 4.946253534009270592e-02
-1.324260560595021986e-02 5.868543407487103458e-03 4.946253544603407271e-02
-1.495638326541112208e-02 5.868543513428137182e-03 4.946253555197499541e-02
-1.667106821068084846e-02 6.062445377261194146e-03 4.922013324749863195e-02
-1.840422836018795055e-02 8.484760757554776767e-03 4.619193397804999268e-02
-2.013936987984718194e-02 9.702493406808510024e-03 4.466961575885841640e-02
-2.188221623129322363e-02 1.092847103007799081e-02 4.313699790065295137e-02
-2.363275856687237914e-02 1.215684048639698034e-02 4.160137707898436954e-02
-2.539115428019159820e-02 1.339364457747593828e-02 4.005522481056644768e-02
-2.715735447672452257e-02 1.463287738008656191e-02 3.850602216347254192e-02
-2.893155752827204080e-02 1.588061857441736002e-02 3.694619323919900999e-02
-3.075072857851827990e-02 1.838988286945142381e-02 3.380929721705516755e-02
-3.254499045588955114e-02 1.965133758969883626e-02 3.223233032611505511e-02
-3.434751875256925047e-02 2.092155358265201937e-02 3.064439998311929703e-02
3.300844388416667580e-02 2.796204201306162762e-02 2.629832592534608882e-02
3.105918204227606227e-02 2.582167860730100184e-02 2.895747696396955284e-02
2.896508839552306563e-02 2.158819828032809696e-02 3.421706835030469129e-02
2.705265477286387943e-02 1.949181508908548466e-02 3.682157597950663774e-02
2.515479076028516447e-02 1.741388693999679216e-02 3.940315044628739383e-02
2.327107912532492759e-02 1.535103681836325062e-02 4.196600116855431217e-02
2.140136713107899241e-02 1.330333321278664993e-02 4.451002804752302033e-02
1.954547223832989872e-02 1.127032831321572726e-02 4.703579479748754011e-02
1.771626159635415060e-02 9.479899490355325753e-03 4.926019040596685272e-02
1.599512532440056783e-02 9.479899596751328872e-03 4.926019051236274482e-02
1.427421256986489105e-02 9.479899703133454203e-03 4.926019061874475913e-02
1.255351588216652679e-02 9.479899809502256858e-03 4.926019072511345076e-02
1.083302222278942871e-02 9.479899915858402970e-03 4.926019083146959687e-02
9.112716690572402953e-03 9.479900022203002763e-03 4.926019093781408564e-02
7.392589972289703368e-03 9.479900128536611348e-03 4.926019104414758321e-02
5.672727749573901884e-03 9.482829439515727543e-03 4.925654544686608460e-02
3.952902779805377714e-03 9.482829545830573359e-03 4.925654555318093042e-02
2.233215645777896635e-03 9.482829652136981480e-03 4.925654565948711650e-02
5.136505150076901838e-04 9.482829758435840084e-03 4.925654576578586408e-02
-1.205804719698711641e-03 9.482829864727815306e-03 4.925654587207783930e-02
-2.925160302889629610e-03 9.482829971013684300e-03 4.925654597836359727e-02
-4.644431135726257570e-03 9.482830077294335247e-03 4.925654608464413720e-02
-6.363632585031075810e-03 9.482830183570767346e-03 4.925654619092045827e-02
-8.082773032707258470e-03 9.482830289843313665e-03 4.925654629719289357e-02
-9.801868311238571413e-03 9.482830396113084426e-03 4.925654640346255331e-02
-1.152093099347977281e-02 9.482830502380856785e-03 4.925654650973021464e-02
