# .PCD v0.7 - Point Cloud Data file format
VERSION 0.7
FIELDS x y z
SIZE 4 4 4
TYPE F F F
COUNT 1 1 1
WIDTH 1278
HEIGHT 1
VIEWPOINT 0 0 0 1 0 0 0
POINTS 1278
DATA ascii
0.085635941 -0.002190257 0.010030094
0.087251947 -0.002795282 0.010423698
0.088948530 -0.003221278 0.011060310
0.090641693 -0.003661414 0.011679612
0.092754156 -0.003173494 0.013559651
0.094669684 -0.003142150 0.014825473
0.096706656 -0.002858476 0.016438848
0.099017189 -0.001998008 0.018844124
0.094291184 -0.016341482 0.000487673
0.095106763 -0.018612185 -0.001412286
0.095916251 -0.020872688 -0.003305292
0.096075496 -0.024479593 -0.007054295
0.096876189 -0.026702404 -0.008912701
0.097670926 -0.028915456 -0.010764520
0.098462280 -0.031113601 -0.012602592
0.099248955 -0.033299729 -0.014430852
0.100027484 -0.035481093 -0.016259257
0.100829309 -0.037594536 -0.018000146
0.101045649 -0.040855308 -0.021342830
0.102213846 -0.042195370 -0.022022191
0.103397588 -0.043496826 -0.022650335
0.104772870 -0.044417599 -0.022748763
0.106183094 -0.045269137 -0.022750778
0.104861702 -0.051362988 -0.030107932
0.105317904 -0.053991527 -0.032621197
0.106238180 -0.055715440 -0.033869941
0.107161999 -0.057419061 -0.035094741
0.108007074 -0.059256087 -0.036512651
0.108848253 -0.061085121 -0.037924531
0.109685639 -0.062906091 -0.039330244
0.110519282 -0.064719032 -0.040729785
0.110608731 -0.067863442 -0.044029848
0.111899000 -0.068817551 -0.044218559
0.113187139 -0.069773266 -0.044410360
0.114573986 -0.070552103 -0.044349782
0.116094451 -0.071096534 -0.043952955
0.117615472 -0.071643757 -0.043558742
0.119139576 -0.072189380 -0.043160828
0.120824584 -0.072462051 -0.042367953
0.122352096 -0.073011343 -0.041971767
0.123882759 -0.073559063 -0.041571890
0.125413996 -0.074109630 -0.041174674
0.126948402 -0.074658691 -0.040773804
0.128483401 -0.075210597 -0.040375606
0.130021571 -0.075761085 -0.039973849
0.131728267 -0.076039492 -0.039173141
0.133270062 -0.076593651 -0.038772970
0.134815089 -0.077146429 -0.038369239
0.136360821 -0.077701953 -0.037967985
0.137909810 -0.078256147 -0.037563224
0.139459499 -0.078813127 -0.037160988
0.141012483 -0.079368807 -0.036755239
0.142741760 -0.079653310 -0.035946514
0.144299902 -0.080210646 -0.035539220
0.145858732 -0.080770847 -0.035134544
0.147421041 -0.081329642 -0.034726120
0.148983996 -0.081891407 -0.034320457
0.150550475 -0.082451788 -0.033911050
0.152299950 -0.082741920 -0.033095335
0.153870326 -0.083306221 -0.032687608
0.155444287 -0.083869175 -0.032276138
0.157018912 -0.084435158 -0.031867470
0.158597164 -0.084999819 -0.031455059
0.160176179 -0.085567390 -0.031045267
0.161758837 -0.086133698 -0.030631773
0.163532589 -0.086430681 -0.029807760
0.165119324 -0.087001012 -0.029395951
0.166709816 -0.087570062 -0.028980346
0.168301026 -0.088142167 -0.028567548
0.169896079 -0.088712950 -0.028150865
0.171491861 -0.089286802 -0.027736986
0.173091516 -0.089859387 -0.027319272
0.174890359 -0.090163804 -0.026487050
0.176494257 -0.090740524 -0.026071011
0.069556004 0.017125771 0.015939941
0.070656545 0.015163747 0.014561511
0.071853748 0.013466734 0.013526108
0.073047913 0.011777880 0.012497416
0.074141170 0.009853901 0.011154697
0.075464661 0.008516441 0.010581590
0.076858196 0.007359281 0.010244609
0.078251001 0.006206435 0.009911724
0.079658003 0.005093645 0.009630433
0.081152598 0.004194503 0.009631865
0.082646669 0.003295677 0.009633296
0.084215485 0.002573225 0.009869689
0.085784859 0.001850617 0.010106268
0.087355987 0.001130513 0.010346624
0.089046776 0.000681841 0.010951531
0.090744925 0.000243768 0.011572394
0.092466471 -0.000148087 0.012257257
0.094649770 0.000480765 0.014320506
0.096678813 0.000745481 0.015898729
0.092642192 -0.012289795 -0.000515063
0.093463027 -0.014577738 -0.002418193
0.094280085 -0.016850229 -0.004307334
0.095092260 -0.019109935 -0.006186037
0.095899582 -0.021357009 -0.008054440
0.096057056 -0.024948702 -0.011765214
0.096854405 -0.027161077 -0.013603179
0.097657967 -0.029338661 -0.015400232
0.098471336 -0.031474810 -0.017147060
0.099280154 -0.033599661 -0.018884791
0.099985726 -0.035913136 -0.020888712
0.101143870 -0.037294817 -0.021614468
0.102224043 -0.038823084 -0.022545614
0.103639372 -0.039677699 -0.022547620
0.101908433 -0.046705488 -0.031112144
0.102840787 -0.048452735 -0.032370192
0.103769359 -0.050193095 -0.033623345
0.104694115 -0.051926718 -0.034871795
0.105150101 -0.054539021 -0.037352395
0.106031738 -0.056320005 -0.038678667
0.106877090 -0.058154566 -0.040084996
0.107719851 -0.059978731 -0.041481958
0.108557557 -0.061797224 -0.042876122
0.109391485 -0.063607773 -0.044264276
0.110168513 -0.065507270 -0.045783192
0.111404458 -0.066560959 -0.046111145
0.112845190 -0.067243357 -0.045914138
0.114364089 -0.067788167 -0.045521157
0.115885969 -0.068331433 -0.045124627
0.117408401 -0.068877495 -0.044730706
0.118933892 -0.069421967 -0.044333147
0.120459952 -0.069969238 -0.043938202
0.122150456 -0.070237481 -0.043142009
0.123681213 -0.070786217 -0.042745613
0.125215069 -0.071333485 -0.042345663
0.126749544 -0.071883534 -0.041948284
0.128287179 -0.072432103 -0.041547310
0.129825424 -0.072983501 -0.041148944
0.131366891 -0.073533408 -0.040746941
0.133077930 -0.073809522 -0.039945973
0.134622994 -0.074363176 -0.039545644
0.136171344 -0.074915376 -0.039141677
0.137720319 -0.075470465 -0.038740360
0.139272641 -0.076024088 -0.038335363
0.140825563 -0.076580671 -0.037933112
0.142381893 -0.077135781 -0.037527133
0.144115585 -0.077418009 -0.036718169
0.145675720 -0.077976905 -0.036313769
0.147239260 -0.078534468 -0.035905774
0.148803502 -0.079094917 -0.035500387
0.150371193 -0.079654054 -0.035091409
0.151939604 -0.080216081 -0.034685045
0.153693611 -0.080503855 -0.033868970
0.155268791 -0.081065514 -0.033457891
0.156844661 -0.081630144 -0.033049511
0.158424178 -0.082193408 -0.032637349
0.160004384 -0.082759679 -0.032227939
0.161588232 -0.083324668 -0.031814842
0.163172847 -0.083892576 -0.031404359
0.164951206 -0.084187221 -0.030580007
0.166542858 -0.084754928 -0.030164804
0.168135289 -0.085325610 -0.029752257
0.169731467 -0.085895073 -0.029336024
0.171328432 -0.086467510 -0.028922452
0.172929215 -0.087038733 -0.028505141
0.174530779 -0.087612975 -0.028090534
0.071902027 0.017447684 0.013431925
0.073099902 0.015748152 0.012400704
0.074301539 0.014073782 0.011398415
0.075412931 0.012190773 0.010118735
0.076759866 0.010905697 0.009619328
0.078157046 0.009751429 0.009289797
0.079551159 0.008595742 0.008956823
0.080986304 0.007544392 0.008759953
0.082483184 0.006643876 0.008761387
0.083979534 0.005743678 0.008762821
0.085570179 0.005065293 0.009058108
0.087143722 0.004345083 0.009298407
0.088739529 0.003674445 0.009605135
0.090442922 0.003246593 0.010236281
0.092146510 0.002812768 0.010861237
0.093900816 0.002486302 0.011631665
0.096102489 0.003146384 0.013726785
0.098191786 0.003534590 0.015463768
0.093128209 -0.011743825 -0.003866743
0.093945931 -0.014028509 -0.005756633
0.094759948 -0.016297687 -0.007632535
0.095569075 -0.018554186 -0.009498157
0.096373419 -0.020798009 -0.011353467
0.096535141 -0.024370203 -0.015018032
0.097353638 -0.026529373 -0.016775065
0.098168686 -0.028674651 -0.018519639
0.098979178 -0.030808546 -0.020255101
0.099802045 -0.032896750 -0.021934517
0.100965680 -0.034276284 -0.022650013
0.102156914 -0.035591682 -0.023280338
0.103544335 -0.036508719 -0.023365874
0.101363321 -0.044475447 -0.033153656
0.102296635 -0.046226549 -0.034407367
0.103227329 -0.047968443 -0.035653037
0.104153070 -0.049705812 -0.036897086
0.105075039 -0.051436422 -0.038136389
0.105506985 -0.054085792 -0.040656027
0.106353442 -0.055924773 -0.042057608
0.107196031 -0.057755694 -0.043453147
0.108035998 -0.059576346 -0.044839531
0.108871017 -0.061391202 -0.046222943
0.109723947 -0.063158407 -0.047544721
0.111013580 -0.064116354 -0.047735544
0.112436354 -0.064831319 -0.047585511
0.113956560 -0.065372658 -0.047190448
0.115477344 -0.065916722 -0.046797900
0.117001138 -0.066459197 -0.046401772
0.118525407 -0.067004612 -0.046008426
0.120052798 -0.067548328 -0.045611316
0.121580756 -0.068094854 -0.045216809
0.123272711 -0.068363165 -0.044424684
0.124806628 -0.068909002 -0.044025658
0.126341134 -0.069457663 -0.043629236
0.127878771 -0.070004852 -0.043229280
0.129417028 -0.070554845 -0.042831876
0.130958456 -0.071103390 -0.042430938
0.132500519 -0.071654744 -0.042032557
0.134214330 -0.071928708 -0.041232504
0.135762629 -0.072479490 -0.040829561
0.137311567 -0.073033126 -0.040429222
0.138863837 -0.073585286 -0.040025202
0.140416759 -0.074140309 -0.039623785
0.141972979 -0.074694002 -0.039218883
0.143529882 -0.075250539 -0.038816532
0.145266366 -0.075530648 -0.038008551
0.146829828 -0.076086673 -0.037601501
0.148395360 -0.076643455 -0.037193939
0.149961509 -0.077203257 -0.036789164
0.151531239 -0.077761555 -0.036380524
0.153101580 -0.078322912 -0.035974720
0.154858466 -0.078608502 -0.035159560
0.156435654 -0.079169390 -0.034748914
0.158013450 -0.079733378 -0.034341151
0.159594985 -0.080295865 -0.033929434
0.161177186 -0.080861401 -0.033520503
0.162763101 -0.081425556 -0.033107756
0.164349657 -0.081992825 -0.032697896
0.166130938 -0.082285288 -0.031874480
0.167724629 -0.082852224 -0.031459726
0.169319032 -0.083422237 -0.031047759
0.170917276 -0.083990896 -0.030631933
0.172516267 -0.084562603 -0.030218852
0.174119123 -0.085133027 -0.029801949
0.176909265 -0.084072250 -0.026910316
0.076965128 0.015220605 0.009977814
0.078366238 0.014057238 0.009643271
0.079766588 0.012898178 0.009312762
0.081163859 0.011737737 0.008978868
0.082656535 0.010811611 0.008950803
0.084159177 0.009911126 0.008955904
0.085660124 0.009008162 0.008957342
0.087295869 0.008421244 0.009375162
0.088875169 0.007699982 0.009616516
0.090543791 0.007182084 0.010127440
0.092251218 0.006747612 0.010750294
0.093961209 0.006312607 0.011374224
0.095804864 0.006170533 0.012389579
0.098165093 0.007164635 0.014921984
0.092300356 -0.009989899 -0.006761456
0.093120740 -0.012273764 -0.008637134
0.093936274 -0.014544667 -0.010502290
0.094743302 -0.016810631 -0.012367639
0.095573081 -0.019005024 -0.014143603
0.096399330 -0.021185081 -0.015906771
0.096603328 -0.024650597 -0.019410199
0.097301278 -0.027045309 -0.021479370
0.098478640 -0.028424052 -0.022180939
0.099655578 -0.029794793 -0.022874396
0.100976226 -0.030864225 -0.023161299
0.102398998 -0.031723299 -0.023163229
0.103821422 -0.032582300 -0.023165296
0.100276965 -0.043323826 -0.036661938
0.101211373 -0.045070400 -0.037902464
0.102140789 -0.046812462 -0.039141422
0.103066441 -0.048547665 -0.040375555
0.103988281 -0.050276233 -0.041605151
0.104912417 -0.051986543 -0.042814151
0.105231059 -0.054835098 -0.045598539
0.106073960 -0.056663513 -0.046982635
0.106913057 -0.058483888 -0.048360706
0.107917083 -0.059982406 -0.049297279
0.109237690 -0.060885945 -0.049410321
0.110550427 -0.061802350 -0.049541836
0.112069304 -0.062341791 -0.049148057
0.113744505 -0.062602464 -0.048363388
0.115266694 -0.063145443 -0.047971231
0.116791842 -0.063686883 -0.047575594
0.118317594 -0.064231033 -0.047182414
0.119846365 -0.064773637 -0.046785706
0.121375716 -0.065319022 -0.046391549
0.122908087 -0.065862947 -0.045993959
0.124604374 -0.066128872 -0.045201479
0.126141534 -0.066674181 -0.044802301
0.127679269 -0.067222350 -0.044405774
0.129220200 -0.067768950 -0.044005577
0.130761677 -0.068318489 -0.043608116
0.132306412 -0.068866447 -0.043206942
0.133851745 -0.069417289 -0.042808409
0.135569901 -0.069688980 -0.042008165
0.137121527 -0.070239187 -0.041604986
0.138673778 -0.070792282 -0.041204457
0.140229311 -0.071343995 -0.040800396
0.141785518 -0.071898547 -0.040398885
0.143345132 -0.072451607 -0.039993663
0.144905354 -0.073007644 -0.039591175
0.146646313 -0.073285404 -0.038782882
0.148213132 -0.073840896 -0.038375659
0.149780583 -0.074399378 -0.037971171
0.151351520 -0.074956467 -0.037563013
0.152923148 -0.075516490 -0.037157500
0.154498350 -0.076075078 -0.036748228
0.156259776 -0.076358333 -0.035932777
0.157838883 -0.076920909 -0.035525216
0.159421626 -0.077482089 -0.035113895
0.161005082 -0.078046259 -0.034705268
0.162592129 -0.078609189 -0.034293060
0.164179939 -0.079175055 -0.033883449
0.165771472 -0.079739576 -0.033470080
0.167557413 -0.080029660 -0.032646304
0.169153005 -0.080598304 -0.032234693
0.170752475 -0.081165518 -0.031819137
0.172352646 -0.081735852 -0.031406412
0.085015451 0.015720601 0.011260476
0.085843691 0.013194662 0.009149156
0.087370882 0.012339749 0.009217120
0.089032243 0.011798182 0.009695670
0.090642901 0.011134922 0.010015652
0.092355377 0.010702444 0.010639925
0.094071703 0.010272398 0.011269153
0.095858225 0.009994218 0.012100627
0.097723124 0.009882432 0.013154610
0.092307720 -0.010501216 -0.011476674
0.093149748 -0.012719440 -0.013258817
0.093986918 -0.014925775 -0.015031622
0.094818140 -0.017122718 -0.016798372
0.095645785 -0.019305383 -0.018552507
0.096468716 -0.021476430 -0.020297482
0.097146947 -0.023929836 -0.022427400
0.098337199 -0.025291484 -0.023098744
0.099816995 -0.026046274 -0.022956234
0.101244780 -0.026908462 -0.022958243
0.097772326 -0.037739576 -0.036419766
0.098714146 -0.039505248 -0.037667875
0.099653271 -0.041261569 -0.038907943
0.100129726 -0.043923361 -0.041381552
0.101059017 -0.045663333 -0.042610762
0.101985754 -0.047394096 -0.043831968
0.102907551 -0.049120459 -0.045051706
0.103791226 -0.050906509 -0.046357539
0.104639001 -0.052746613 -0.047742206
0.104815282 -0.055847977 -0.050862091
0.106108890 -0.056806674 -0.051048835
0.107376434 -0.057811755 -0.051300253
0.108816950 -0.058492039 -0.051104783
0.110335547 -0.059029813 -0.050711870
0.111854675 -0.059570345 -0.050321504
0.113376747 -0.060109237 -0.049927567
0.115054953 -0.060369797 -0.049145728
0.116581546 -0.060910072 -0.048750404
0.118108678 -0.061453159 -0.048357667
0.119638895 -0.061994554 -0.047961225
0.121170876 -0.062536648 -0.047564418
0.122703418 -0.063081567 -0.047170198
0.124239082 -0.063624860 -0.046772319
0.125939659 -0.063888490 -0.045979638
0.127478767 -0.064435499 -0.045583465
0.129021063 -0.064980916 -0.045183639
0.130563939 -0.065529213 -0.044786448
0.132110027 -0.066075975 -0.044385651
0.133656685 -0.066625660 -0.043987530
0.135206614 -0.067173803 -0.043585756
0.136929266 -0.067442990 -0.042785005
0.138482780 -0.067994977 -0.042384984
0.140039686 -0.068545365 -0.041981167
0.141597243 -0.069098632 -0.041579938
0.143158153 -0.069650456 -0.041175097
0.144719648 -0.070205292 -0.040773032
0.146284579 -0.070758642 -0.040367267
0.148030071 -0.071033976 -0.039558588
0.149598813 -0.071591176 -0.039154433
0.151171035 -0.072146960 -0.038746625
0.152743963 -0.072705651 -0.038341409
0.154320429 -0.073262928 -0.037932482
0.155897575 -0.073823183 -0.037526242
0.157665003 -0.074101903 -0.036707321
0.159247539 -0.074663935 -0.036299550
0.160833657 -0.075224661 -0.035888167
0.162420509 -0.075788359 -0.035479419
0.164011072 -0.076350650 -0.035066875
0.165602318 -0.076916013 -0.034657107
0.167197275 -0.077480060 -0.034243633
0.168987860 -0.077767785 -0.033419555
0.171559846 -0.076950399 -0.030953940
0.092392829 -0.010836914 -0.015924319
0.093231415 -0.013045857 -0.017688016
0.094064020 -0.015245505 -0.019445811
0.094868037 -0.017484483 -0.021262154
0.096056360 -0.018882438 -0.021968144
0.097236958 -0.020287415 -0.022686223
0.098648640 -0.021198507 -0.022748878
0.100081558 -0.022063753 -0.022750824
0.095746782 -0.034835672 -0.038676458
0.096693602 -0.036603736 -0.039916228
0.097635356 -0.038367145 -0.041154346
0.098573216 -0.040123629 -0.042387712
0.099507209 -0.041873236 -0.043616385
0.099983231 -0.044518491 -0.046057900
0.100908708 -0.046249438 -0.047272556
0.101822174 -0.047989818 -0.048504473
0.102675356 -0.049833180 -0.049880606
0.103523476 -0.051670693 -0.051253834
0.104371254 -0.053493387 -0.052611939
0.105564418 -0.054644532 -0.053059403
0.107081104 -0.055180063 -0.052667769
0.108598268 -0.055718420 -0.052278765
0.110118351 -0.056255053 -0.051886165
0.111638937 -0.056794489 -0.051496143
0.113162478 -0.057332230 -0.051102519
0.114686522 -0.057872810 -0.050711526
0.116370173 -0.058128851 -0.049926421
0.117900021 -0.058668514 -0.049530856
0.119430376 -0.059211062 -0.049137968
0.120963806 -0.059751944 -0.048741431
0.122497737 -0.060295756 -0.048347614
0.124034803 -0.060837889 -0.047950106
0.125572417 -0.061382895 -0.047555222
0.127277328 -0.061644151 -0.046762260
0.128821001 -0.062188392 -0.046362804
0.130365250 -0.062735512 -0.045965984
0.131912699 -0.063281083 -0.045565562
0.133462105 -0.063827258 -0.045164534
0.135012030 -0.064376456 -0.044766325
0.136563967 -0.064926198 -0.044367419
0.138290943 -0.065193160 -0.043566592
0.139849195 -0.065742292 -0.043163115
0.141408051 -0.066294375 -0.042762309
0.142970253 -0.066844990 -0.042357907
0.144534515 -0.067396266 -0.041952903
0.146099359 -0.067950572 -0.041550661
0.147667713 -0.068503288 -0.041144591
0.149417687 -0.068776288 -0.040335673
0.150989804 -0.069332961 -0.039931351
0.152565455 -0.069888145 -0.039523296
0.154141705 -0.070446411 -0.039118049
0.155721570 -0.071003158 -0.038708970
0.157302094 -0.071562930 -0.038302609
0.159072696 -0.071841393 -0.037486475
0.160660089 -0.072400747 -0.037075411
0.162248203 -0.072963078 -0.036666971
0.163839980 -0.073524052 -0.036254834
0.165432478 -0.074088036 -0.035845379
0.167028695 -0.074650653 -0.035432181
0.168625585 -0.075216391 -0.035021797
0.092317039 -0.011521723 -0.020796922
0.093513420 -0.012931662 -0.021505885
0.094706865 -0.014338357 -0.022213335
0.096033776 -0.015449267 -0.022533737
0.097472246 -0.016317952 -0.022535763
0.098910350 -0.017186373 -0.022537741
0.093722175 -0.031935898 -0.040929070
0.094672908 -0.033708613 -0.042163569
0.095618495 -0.035476809 -0.043396596
0.096560171 -0.037237998 -0.044624850
0.097497942 -0.038992279 -0.045848415
0.098433019 -0.040737341 -0.047064167
0.099363110 -0.042477931 -0.048278402
0.099855005 -0.045074453 -0.050644910
0.100711293 -0.046925649 -0.052018696
0.101563614 -0.048768737 -0.053386600
0.102609969 -0.050219329 -0.054230405
0.103814547 -0.051355110 -0.054652230
0.105192367 -0.052154237 -0.054620280
0.106859827 -0.052403034 -0.053842584
0.108378474 -0.052940310 -0.053453924
0.109900050 -0.053475806 -0.053061637
0.111422126 -0.054014117 -0.052671917
0.112947094 -0.054550804 -0.052278753
0.114472595 -0.055090276 -0.051888114
0.116001080 -0.055628057 -0.051493885
0.117689030 -0.055881679 -0.050708437
0.119220803 -0.056423132 -0.050315956
0.120755694 -0.056962802 -0.049919695
0.122291083 -0.057505408 -0.049526148
0.123829540 -0.058046417 -0.049129058
0.125369821 -0.058588074 -0.048731509
0.126910673 -0.059132580 -0.048336531
0.128619956 -0.059391431 -0.047543251
0.130166923 -0.059935103 -0.047143623
0.131714466 -0.060481670 -0.046746614
0.133265239 -0.061026646 -0.046345972
0.134816545 -0.061574621 -0.045948091
0.136371159 -0.062120971 -0.045546478
0.137926336 -0.062670296 -0.045147578
0.139657835 -0.062934740 -0.044346271
0.141219368 -0.063483418 -0.043942768
0.142781549 -0.064034985 -0.043541841
0.144347144 -0.064584992 -0.043137182
0.145913339 -0.065137996 -0.042735237
0.147482973 -0.065689490 -0.042329611
0.149053261 -0.066243927 -0.041926604
0.150807786 -0.066514488 -0.041117322
0.152384673 -0.067068467 -0.040709759
0.153962276 -0.067625341 -0.040304720
0.155543426 -0.068180770 -0.039896001
0.157125207 -0.068739258 -0.039490042
0.158710574 -0.069296331 -0.039080399
0.160485818 -0.069572343 -0.038263874
0.162075213 -0.070133311 -0.037855746
0.163668255 -0.070692901 -0.037443933
0.165261949 -0.071255606 -0.037034929
0.167628790 -0.070691405 -0.034987213
0.093313019 -0.009850193 -0.022560602
0.094508521 -0.011262140 -0.023267808
0.095917860 -0.012202693 -0.023361240
0.097358949 -0.013073008 -0.023363300
0.098799670 -0.013943017 -0.023365265
0.100238791 -0.014815374 -0.023370630
0.094126832 -0.031493117 -0.044189717
0.095074631 -0.033262725 -0.045415244
0.096017329 -0.035027780 -0.046639266
0.096956149 -0.036785839 -0.047858521
0.097891073 -0.038537029 -0.049073146
0.098822125 -0.040281449 -0.050283235
0.099750545 -0.042016706 -0.051485578
0.100187565 -0.044713062 -0.053973436
0.100813905 -0.047007989 -0.055934170
0.102132471 -0.047926941 -0.056061439
0.103338628 -0.049062048 -0.056479004
0.104777970 -0.049742734 -0.056288238
0.106295313 -0.050275762 -0.055898420
0.107965483 -0.050522354 -0.055121571
0.109486034 -0.051058833 -0.054733313
0.111009427 -0.051593702 -0.054341659
0.112533377 -0.052131283 -0.053952435
0.114060259 -0.052667175 -0.053559678
0.115587657 -0.053205888 -0.053169488
0.117117973 -0.053743038 -0.052775903
0.118808656 -0.053994488 -0.051991369
0.120342374 -0.054535119 -0.051599248
0.121879107 -0.055074159 -0.051203636
0.123416394 -0.055616038 -0.050810596
0.124956773 -0.056156286 -0.050413971
0.126497736 -0.056699348 -0.050019870
0.128041796 -0.057240862 -0.049622284
0.129753833 -0.057497577 -0.048829983
0.131301379 -0.058042808 -0.048434040
0.132852162 -0.058586396 -0.048034427
0.134404902 -0.059130576 -0.047634219
0.135958132 -0.059677834 -0.047236850
0.137514717 -0.060223392 -0.046835670
0.139071826 -0.060771998 -0.046437288
0.140806123 -0.061034296 -0.045636990
0.142369660 -0.061582152 -0.045233878
0.143933805 -0.062132971 -0.044833427
0.145501351 -0.062682252 -0.044429301
0.147069518 -0.063234506 -0.044027836
0.148641131 -0.063785243 -0.043622702
0.150213357 -0.064338996 -0.043220270
0.151970740 -0.064607381 -0.042411971
0.153549680 -0.065160511 -0.042004762
0.155129256 -0.065716666 -0.041600262
0.156712383 -0.066271374 -0.041192087
0.158296182 -0.066829084 -0.040786572
0.159883643 -0.067385272 -0.040377251
0.161661720 -0.067659203 -0.039561868
0.163253062 -0.068219523 -0.039154374
0.164848145 -0.068778326 -0.038743025
0.167413158 -0.067912600 -0.036277466
0.097610847 -0.009027902 -0.023164554
0.099056426 -0.009900931 -0.023166598
0.100500388 -0.010776318 -0.023172027
0.101945215 -0.011648803 -0.023173983
0.103387165 -0.012526312 -0.023182796
0.095478693 -0.032810034 -0.048638691
0.095886549 -0.035667760 -0.051293104
0.096822558 -0.037414399 -0.052494981
0.097753560 -0.039156591 -0.053695396
0.098680731 -0.040892063 -0.054891337
0.099596000 -0.042637027 -0.056104207
0.100265839 -0.044854436 -0.057947485
0.101522476 -0.045895253 -0.058235735
0.103036878 -0.046428474 -0.057850311
0.104552914 -0.046962185 -0.057464381
0.106071810 -0.047494064 -0.057074834
0.107591178 -0.048028744 -0.056687848
0.109265508 -0.048273049 -0.055910892
0.110790424 -0.048806751 -0.055519508
0.112315876 -0.049343202 -0.055130597
0.113844255 -0.049877946 -0.054738164
0.115373067 -0.050415654 -0.054348470
0.116904899 -0.050951577 -0.053955119
0.118437235 -0.051490371 -0.053564370
0.120132183 -0.051739480 -0.052779661
0.121670393 -0.052277306 -0.052384336
0.123209132 -0.052818012 -0.051991619
0.124750936 -0.053357101 -0.051595375
0.126294598 -0.053896766 -0.051198583
0.127838788 -0.054439359 -0.050804440
0.129386140 -0.054980302 -0.050406681
0.131102572 -0.055234595 -0.049614088
0.132653424 -0.055779263 -0.049217972
0.134207503 -0.056322318 -0.048818240
0.135762207 -0.056868219 -0.048421026
0.137320119 -0.057412633 -0.048020332
0.138878627 -0.057959973 -0.047622242
0.140440507 -0.058505646 -0.047220403
0.142179228 -0.058765613 -0.046419919
0.143744689 -0.059315245 -0.046019902
0.145313625 -0.059863187 -0.045616042
0.146883136 -0.060414172 -0.045214927
0.148456063 -0.060963658 -0.044810195
0.150029636 -0.061516101 -0.044408066
0.151606688 -0.062067035 -0.044002278
0.153368611 -0.062333035 -0.043193729
0.154949515 -0.062887862 -0.042789537
0.156533958 -0.063441222 -0.042381680
0.158119071 -0.063997590 -0.041976478
0.159707748 -0.064552543 -0.041567665
0.161297105 -0.065110522 -0.041161497
0.163079885 -0.065381919 -0.040345654
0.165765293 -0.064313727 -0.037615750
0.102257072 -0.007493375 -0.022850415
0.103660527 -0.008465950 -0.022978616
0.105108235 -0.009343566 -0.022983978
0.106555516 -0.010221061 -0.022989476
0.096413536 -0.034950431 -0.054138646
0.096688531 -0.038040501 -0.057092306
0.097634019 -0.039736521 -0.058229906
0.098557388 -0.041463296 -0.059412032
0.099766142 -0.042605961 -0.059830517
0.101293220 -0.043112190 -0.059412462
0.102809201 -0.043644290 -0.059027298
0.104327956 -0.044174627 -0.058638665
0.105847174 -0.044707769 -0.058252587
0.107369242 -0.045239108 -0.057862947
0.108891767 -0.045773291 -0.057475909
0.110570361 -0.046015143 -0.056698619
0.112098474 -0.046548309 -0.056307153
0.113627101 -0.047084272 -0.055918189
0.115158685 -0.047618485 -0.055525672
0.116690776 -0.048155540 -0.055135701
0.118224580 -0.048693213 -0.054745323
0.119761399 -0.049229178 -0.054351386
0.121460702 -0.049475809 -0.053566329
0.123002150 -0.050013118 -0.053170925
0.124544123 -0.050553316 -0.052778120
0.126089233 -0.051091787 -0.052381666
0.127634847 -0.051633227 -0.051987900
0.129183631 -0.052172966 -0.051590480
0.130732955 -0.052715641 -0.051195711
0.132453789 -0.052967503 -0.050402837
0.134009299 -0.053509299 -0.050003407
0.135565350 -0.054054081 -0.049606669
0.137124656 -0.054597261 -0.049206320
0.138684557 -0.055143367 -0.048808573
0.140247819 -0.055687789 -0.048407089
0.141811603 -0.056235289 -0.048008377
0.143554798 -0.056492838 -0.047207639
0.145125095 -0.057039509 -0.046804139
0.146697344 -0.057586996 -0.046400269
0.148270210 -0.058137472 -0.045999044
0.149846584 -0.058686309 -0.045594034
0.151423568 -0.059238178 -0.045191711
0.153002566 -0.059790853 -0.044788976
0.154769076 -0.060054392 -0.043980099
0.156354831 -0.060606439 -0.043572613
0.157942678 -0.061159289 -0.043164672
0.159531234 -0.061715097 -0.042759282
0.161123390 -0.062269455 -0.042350244
0.163482911 -0.061667046 -0.040305850
0.208007285 0.002287497 0.051385625
0.106838364 -0.006144281 -0.022786329
0.108291462 -0.007021858 -0.022788345
0.109744196 -0.007899259 -0.022790409
0.111195306 -0.008779076 -0.022795889
0.098541930 -0.038231855 -0.060014689
0.099646562 -0.039593468 -0.060713360
0.100914852 -0.040619773 -0.060976461
0.102580354 -0.040855493 -0.060205703
0.104100668 -0.041384728 -0.059817388
0.105621445 -0.041916773 -0.059431624
0.107145040 -0.042447028 -0.059042353
0.108669090 -0.042980136 -0.058655676
0.110196018 -0.043511447 -0.058265445
0.111878826 -0.043750965 -0.057488032
0.113408990 -0.044285763 -0.057099345
0.114942045 -0.044818900 -0.056707246
0.116475606 -0.045354879 -0.056317692
0.118012149 -0.045889117 -0.055924591
0.119549211 -0.046426205 -0.055534035
0.121089297 -0.046961577 -0.055139930
0.122792896 -0.047205862 -0.054354718
0.124336359 -0.047744855 -0.053962199
0.125882908 -0.048282168 -0.053566132
0.127429976 -0.048822418 -0.053172705
0.128980206 -0.049360955 -0.052775629
0.130530948 -0.049902468 -0.052381241
0.132084916 -0.050442249 -0.051983168
0.133810112 -0.050691780 -0.051190161
0.135368993 -0.051232935 -0.050790489
0.136928337 -0.051777220 -0.050393684
0.138491046 -0.052319730 -0.049993051
0.140054231 -0.052865378 -0.049595285
0.141620849 -0.053409235 -0.049193654
0.143188012 -0.053956143 -0.048794748
0.144935760 -0.054211180 -0.047993624
0.146509355 -0.054757424 -0.047590167
0.148083620 -0.055306566 -0.047189207
0.149661322 -0.055854154 -0.046784605
0.151239630 -0.056404774 -0.046382689
0.152821415 -0.056953864 -0.045977131
0.154403839 -0.057505968 -0.045574207
0.156174998 -0.057766979 -0.044764924
0.157764182 -0.058318482 -0.044357312
0.159354024 -0.058873010 -0.043952335
0.162103193 -0.057654280 -0.041066111
0.202636804 0.001085792 0.042415400
0.203918900 -0.000342265 0.041757364
0.207670788 0.001948523 0.046326244
0.211105372 0.003723074 0.050184998
0.112516764 -0.002583988 -0.019878345
0.112950790 -0.005566151 -0.022592667
0.114407410 -0.006445902 -0.022594717
0.115862391 -0.007328121 -0.022600213
0.102723185 -0.037318396 -0.060419483
0.103872280 -0.038590081 -0.060997431
0.105394568 -0.039121136 -0.060612116
0.106919705 -0.039650308 -0.060223221
0.108445270 -0.040182380 -0.059836951
0.109973762 -0.040712530 -0.059447006
0.111502656 -0.041245649 -0.059059781
0.113189773 -0.041482656 -0.058282025
0.114724385 -0.042014578 -0.057890170
0.116259425 -0.042549487 -0.057501035
0.117797478 -0.043082568 -0.057108272
0.119336003 -0.043618575 -0.056718134
0.120877619 -0.044152710 -0.056324279
0.122419630 -0.044689946 -0.055933280
0.124127588 -0.044931768 -0.055147793
0.125675606 -0.045467895 -0.054752070
0.127225457 -0.046004619 -0.054355851
0.128775825 -0.046544296 -0.053962256
0.130329370 -0.047082245 -0.053565034
0.131883446 -0.047623149 -0.053170441
0.133440679 -0.048162455 -0.052772353
0.135170389 -0.048409413 -0.051978907
0.136731193 -0.048952412 -0.051582357
0.138295259 -0.049493778 -0.051182227
0.139859910 -0.050038095 -0.050784673
0.141427884 -0.050580770 -0.050383492
0.142996440 -0.051126432 -0.049984941
0.144568338 -0.051670514 -0.049582804
0.146320634 -0.051923061 -0.048781358
0.147896270 -0.052470938 -0.048380758
0.149475313 -0.053017274 -0.047976574
0.151054957 -0.053566650 -0.047575066
0.152638128 -0.054114380 -0.047169789
0.154221892 -0.054665194 -0.046767231
0.155809211 -0.055214415 -0.046360956
0.157584950 -0.055473022 -0.045551460
0.199116320 0.006023770 0.040769202
0.200234893 0.004332931 0.039754732
0.201352365 0.002649615 0.038747109
0.202465005 0.000968029 0.037738298
0.203663464 -0.000574630 0.036919685
0.207336415 0.001611314 0.041308566
0.210755330 0.003376920 0.045125360
0.214208477 0.005158012 0.048978192
0.217700457 0.006960825 0.052876038
0.115775268 -0.004031230 -0.023438144
0.117233855 -0.004912177 -0.023440181
0.112107924 -0.018917180 -0.040389817
0.104976268 -0.036697307 -0.062281142
0.106500462 -0.037227555 -0.061896239
0.108027443 -0.037756057 -0.061507943
0.109554920 -0.038287321 -0.061122088
0.111085314 -0.038816695 -0.060732611
0.112616128 -0.039349009 -0.060345802
0.114305918 -0.039583921 -0.059569117
0.115842409 -0.040115136 -0.059177827
0.117379398 -0.040649207 -0.058789067
0.118919353 -0.041181549 -0.058396824
0.120459781 -0.041716818 -0.058007206
0.122003267 -0.042250283 -0.057613963
0.123547281 -0.042786616 -0.057223256
0.125257988 -0.043026272 -0.056438770
0.126807950 -0.043561623 -0.056043536
0.128358419 -0.044099927 -0.055650920
0.129912015 -0.044636553 -0.055254778
0.131466153 -0.045176107 -0.054861209
0.133023534 -0.045713870 -0.054463932
0.134582764 -0.046252336 -0.054066246
0.136315247 -0.046497159 -0.053273873
0.137878033 -0.047039360 -0.052877767
0.139444087 -0.047579924 -0.052478085
0.141010688 -0.048123508 -0.052081070
0.142580617 -0.048665449 -0.051680433
0.144151169 -0.049210314 -0.051282331
0.145725071 -0.049753595 -0.050880651
0.147480181 -0.050004006 -0.050080299
0.149057785 -0.050551155 -0.049680243
0.150638866 -0.051096655 -0.049276479
0.152220524 -0.051645239 -0.048875426
0.153805659 -0.052192267 -0.048470753
0.155391446 -0.052742289 -0.048068654
0.156980816 -0.053290679 -0.047662802
0.198447154 0.008527950 0.038410288
0.199566057 0.006834330 0.037399473
0.200681971 0.005145385 0.036391501
0.201796831 0.003464007 0.035390397
0.202906848 0.001784305 0.034388074
0.204079487 0.000208416 0.033526103
0.207701056 0.002324274 0.037787948
0.211112917 0.004086974 0.041574333
0.214562940 0.005871184 0.045404827
0.218047612 0.007671064 0.049271574
0.121675247 -0.000173370 -0.020178817
0.107005189 -0.032975841 -0.061217658
0.108086217 -0.034392294 -0.061971628
0.109330546 -0.035481363 -0.062305992
0.110862480 -0.036009644 -0.061916898
0.112394775 -0.036540978 -0.061530600
0.113930073 -0.037070322 -0.061140557
0.115624178 -0.037302748 -0.060363593
0.117162681 -0.037835713 -0.059975214
0.118704137 -0.038366930 -0.059583363
0.120246101 -0.038901017 -0.059194034
0.121791093 -0.039433311 -0.058801141
0.123336569 -0.039968550 -0.058410862
0.124885119 -0.040502021 -0.058017021
0.126600253 -0.040739139 -0.057232192
0.128153484 -0.041273966 -0.056836901
0.129707248 -0.041811719 -0.056444181
0.131264225 -0.042347655 -0.056047760
0.132821670 -0.042886662 -0.055654090
0.134382328 -0.043423943 -0.055256808
0.135943544 -0.043964169 -0.054862095
0.137680519 -0.044206464 -0.054069403
0.139247959 -0.044745858 -0.053670176
0.140816022 -0.045288143 -0.053273430
0.142387383 -0.045828797 -0.052873119
0.143959321 -0.046372452 -0.052475421
0.145534638 -0.046914436 -0.052074068
0.147110506 -0.047459495 -0.051675420
0.148870202 -0.047707364 -0.050874723
0.150452637 -0.048251614 -0.050471383
0.152035664 -0.048798923 -0.050070698
0.153622179 -0.049344623 -0.049666359
0.155209342 -0.049893321 -0.049264589
0.157947445 -0.048621818 -0.046385522
0.197641007 0.010813234 0.035759913
0.198289417 0.008381690 0.033748652
0.199404516 0.006694372 0.032747974
0.200518560 0.005014646 0.031754143
0.201627709 0.003336492 0.030758956
0.202734010 0.001663026 0.029766696
0.203883431 0.000063802 0.028873210
0.207367624 0.001986008 0.032836616
0.210764029 0.003739896 0.036582000
0.214198191 0.005514982 0.040370704
0.217666771 0.007305687 0.044195235
0.221174390 0.009118285 0.048064527
0.224717452 0.010946889 0.051970641
0.125218580 -0.001057106 -0.023015809
0.111229992 -0.032045867 -0.061625366
0.112342276 -0.033399593 -0.062294842
0.113709251 -0.034256289 -0.062327158
0.115247754 -0.034785124 -0.061937097
0.116946211 -0.035015021 -0.061159827
0.118487966 -0.035547419 -0.060771335
0.120032721 -0.036077995 -0.060379290
0.121577951 -0.036611520 -0.059989852
0.123126219 -0.037143245 -0.059596859
0.124674973 -0.037677923 -0.059206476
0.126226843 -0.038210762 -0.058812444
0.127946360 -0.038445435 -0.058027421
0.129501591 -0.038982039 -0.057635095
0.131060021 -0.039516802 -0.057239082
0.132618955 -0.040054578 -0.056845719
0.134181074 -0.040590643 -0.056448803
0.135743725 -0.041129691 -0.056054493
0.137309662 -0.041666950 -0.055656495
0.139051107 -0.041906788 -0.054863580
0.140620564 -0.042447908 -0.054467288
0.142193348 -0.042987316 -0.054067347
0.143766724 -0.043529694 -0.053669971
0.145343430 -0.044070452 -0.053269038
0.146922142 -0.044611862 -0.052867567
0.148501446 -0.045156292 -0.052468701
0.150265707 -0.045401684 -0.051667764
0.151851577 -0.045945338 -0.051264261
0.154008341 -0.045570030 -0.049623692
0.194120163 0.015750192 0.034113680
0.195244471 0.014047127 0.033109123
0.196367576 0.012351714 0.032111356
0.197485825 0.010658076 0.031112458
0.198132332 0.008235683 0.029121323
0.199245545 0.006557563 0.028134644
0.200353972 0.004881165 0.027146846
0.201459367 0.003209171 0.026161553
0.202563887 0.001544809 0.025183234
0.203692187 -0.000074693 0.024262880
0.206983980 0.001570781 0.027817491
0.210417453 0.003394793 0.031630583
0.213836003 0.005161001 0.035378256
0.217288557 0.006942504 0.039160981
0.220779877 0.008745798 0.042987936
0.224306335 0.010564950 0.046851154
0.227870671 0.012403403 0.050755629
0.121915593 -0.015148128 -0.042713315
0.115449557 -0.031155129 -0.062089491
0.116568009 -0.032495641 -0.062738396
0.118270802 -0.032723037 -0.061960872
0.119817040 -0.033252560 -0.061569316
0.121363800 -0.033784930 -0.061180224
0.122913630 -0.034315417 -0.060787500
0.124463901 -0.034848933 -0.060397463
0.126017242 -0.035380657 -0.060003883
0.127571079 -0.035915348 -0.059612904
0.129295040 -0.036147465 -0.058827561
0.130854958 -0.036681030 -0.058431911
0.132416689 -0.037215268 -0.058035859
0.133978943 -0.037752492 -0.057642405
0.135544451 -0.038287899 -0.057245271
0.137110475 -0.038826332 -0.056850783
0.138679734 -0.039363076 -0.056452749
0.140425725 -0.039600342 -0.055659495
0.141998575 -0.040140856 -0.055263028
0.143574726 -0.040679716 -0.054863017
0.145151488 -0.041221527 -0.054465512
0.146731613 -0.041761673 -0.054064422
0.148312345 -0.042304811 -0.053665886
0.149896438 -0.042846380 -0.053263848
0.152608697 -0.041543639 -0.050404540
0.191726953 0.018983877 0.031467514
0.192853639 0.017277873 0.030467632
0.193977129 0.015576419 0.029470301
0.195097616 0.013879761 0.028475883
0.196216900 0.012190689 0.027488142
0.197331318 0.010503304 0.026499183
0.197977854 0.008093003 0.024531992
0.199085438 0.006418153 0.023551233
0.200190096 0.004747875 0.022573202
0.201293712 0.003084988 0.021601764
0.202392554 0.001423688 0.020629062
0.203498044 -0.000218732 0.019678649
0.206875598 0.001568627 0.023400012
0.210010519 0.002957926 0.026591524
0.213476194 0.004808995 0.030426605
0.216912968 0.006581537 0.034168288
0.220388106 0.008375572 0.037953398
0.223898119 0.010185373 0.041774310
0.227447765 0.012017325 0.045640047
0.232768660 0.016365390 0.052994302
0.118635891 -0.028783042 -0.061737287
0.119600478 -0.030422029 -0.062760735
0.121148781 -0.030953251 -0.062371993
0.122700089 -0.031482674 -0.061979763
0.124251910 -0.032014993 -0.061590036
0.125806772 -0.032545539 -0.061196819
0.127363453 -0.033076625 -0.060803064
0.128920630 -0.033610688 -0.060411901
0.130648963 -0.033840418 -0.059626478
0.132212243 -0.034373349 -0.059230660
0.133776001 -0.034909339 -0.058837524
0.135342965 -0.035443561 -0.058440811
0.136910422 -0.035980852 -0.058046778
0.138481181 -0.036516298 -0.057649030
0.140052447 -0.037054815 -0.057253967
0.141802950 -0.037289570 -0.056460475
0.143380561 -0.037827148 -0.056060801
0.144958778 -0.038367680 -0.055663628
0.146540327 -0.038906565 -0.055262922
0.148122438 -0.039448513 -0.054864853
0.149708001 -0.039988708 -0.054463068
0.152315438 -0.038847581 -0.051838671
0.190466453 0.020502466 0.027831153
0.191592277 0.018797985 0.026838341
0.192715095 0.017098361 0.025848478
0.193834770 0.015403306 0.024861204
0.194953288 0.013715924 0.023880678
0.196066860 0.012030082 0.022898763
0.197179437 0.010352001 0.021923775
0.197822209 0.007947747 0.019972237
0.198926026 0.006279003 0.019001172
0.200028888 0.004617807 0.018036857
0.201126897 0.002958053 0.017071106
0.202244855 0.001337572 0.016154989
0.203377066 -0.000252999 0.015276117
0.206767453 0.001565698 0.019012619
0.209889423 0.002947376 0.022169761
0.213041666 0.004344330 0.025359341
0.216540002 0.006222814 0.029216627
0.219999097 0.008007661 0.032960435
0.223492799 0.009808183 0.036739586
0.227025774 0.011630626 0.040562846
0.232566215 0.016311055 0.048321881
0.236205492 0.018197552 0.052269101
0.167133712 0.063305572 0.051127406
0.120971245 -0.028043950 -0.063473253
0.122277977 -0.029034638 -0.063668728
0.123831304 -0.029563135 -0.063276818
0.125385032 -0.030094745 -0.062887672
0.126941882 -0.030624438 -0.062494865
0.128499164 -0.031157213 -0.062104779
0.130059612 -0.031688093 -0.061711035
0.131790813 -0.031915489 -0.060926482
0.133355983 -0.032447776 -0.060531350
0.134921708 -0.032982989 -0.060138716
0.136490646 -0.033516430 -0.059742510
0.138060114 -0.034052876 -0.059348891
0.139632836 -0.034587573 -0.058951703
0.141206101 -0.035125283 -0.058557100
0.142959477 -0.035357771 -0.057764592
0.144539102 -0.035894533 -0.057365393
0.146119251 -0.036434393 -0.056968866
0.147702861 -0.036972397 -0.056568546
0.149856499 -0.036561750 -0.054925597
0.189128160 0.025456496 0.027474407
0.190258508 0.023741101 0.026479779
0.190927933 0.021280406 0.024501299
0.192051156 0.019578011 0.023515044
0.193171207 0.017880166 0.022531325
0.194290107 0.016190057 0.021554381
0.195404139 0.014501624 0.020576229
0.196515172 0.012817825 0.019600791
0.197625085 0.011141556 0.018631951
0.198265495 0.008739421 0.016692978
0.199368648 0.007075517 0.015732107
0.200467025 0.005413189 0.014769982
0.201571970 0.003769848 0.013829928
0.202704381 0.002177045 0.012954389
0.203834135 0.000588157 0.012081078
0.207232796 0.002425720 0.015817771
0.210353552 0.003811820 0.018959246
0.213500629 0.005207387 0.022125083
0.216883009 0.006920997 0.025733133
0.220334933 0.008702976 0.029447234
0.223823300 0.010503490 0.033200278
0.227350755 0.012325813 0.036996949
0.232885419 0.017007153 0.044706270
0.236516642 0.018890280 0.048621548
0.240105134 0.020676532 0.052418901
0.161040294 0.072130113 0.051568101
0.162256507 0.070281936 0.050502080
0.163470640 0.068442640 0.049443341
0.164679224 0.066605377 0.048383356
0.165884076 0.064773616 0.047326476
0.167085210 0.062947300 0.046272659
0.167843842 0.060297370 0.044176740
0.124125603 -0.025768478 -0.063268299
0.125172702 -0.027252269 -0.064083441
0.126731031 -0.027780888 -0.063691139
0.128291235 -0.028309932 -0.063298172
0.129851848 -0.028842108 -0.062907958
0.131415638 -0.029372383 -0.062514096
0.133151311 -0.029597239 -0.061729308
0.134718517 -0.030131290 -0.061337086
0.136288964 -0.030663476 -0.060941219
0.137859879 -0.031198780 -0.060548063
0.139434117 -0.031732178 -0.060151170
0.141008852 -0.032268665 -0.059756943
0.142586912 -0.032803341 -0.059359067
0.144344832 -0.033033305 -0.058566347
0.145926450 -0.033571889 -0.058170157
0.148450204 -0.032518911 -0.055710061
0.186870384 0.028898062 0.025123301
0.187927738 0.027052095 0.023967891
0.189002010 0.025245932 0.022860270
0.190128461 0.023536983 0.021875618
0.190795881 0.021085734 0.019917064
0.191915236 0.019389653 0.018940629
0.193031494 0.017698178 0.017966813
0.194146581 0.016014336 0.016999618
0.195256872 0.014332218 0.016031306
0.196364153 0.012654650 0.015065615
0.197470295 0.010984514 0.014106364
0.198110737 0.008594267 0.012190581
0.199208316 0.006933512 0.011235366
0.200323709 0.005309230 0.010325278
0.201455104 0.003717956 0.009455955
0.202585743 0.002133507 0.008592721
0.203711793 0.000549959 0.007727703
0.207123318 0.002418811 0.011478971
0.210231248 0.003797347 0.014586723
0.213369207 0.005191106 0.017726324
0.216535623 0.006597270 0.020894170
0.219947724 0.008334708 0.024520163
0.223419969 0.010126021 0.028232294
0.226931005 0.011939000 0.031987484
0.232438418 0.016596921 0.039611818
0.236052272 0.018470096 0.043483759
0.239707419 0.020366363 0.047401558
0.243400085 0.022279716 0.051357302
0.157784282 0.078155130 0.050943823
0.159010391 0.076297275 0.049880760
0.160230894 0.074441531 0.048816497
0.161015766 0.071740547 0.046699855
0.162227466 0.069899756 0.045644755
0.163435368 0.068064422 0.044592664
0.164639524 0.066234559 0.043543628
0.165841732 0.064413515 0.042501859
0.167038474 0.062594457 0.041458840
0.167792646 0.059951917 0.039380143
0.168982778 0.058150638 0.038350238
0.127344806 -0.023394958 -0.062956071
0.128467966 -0.024744551 -0.063595211
0.129643258 -0.025990986 -0.064106507
0.131208554 -0.026520102 -0.063713068
0.132774366 -0.027052185 -0.063322156
0.134514516 -0.027274490 -0.062537145
0.136086466 -0.027805463 -0.062141662
0.137660271 -0.028337084 -0.061745736
0.139234602 -0.028871727 -0.061352378
0.140812230 -0.029404527 -0.060955385
0.142390335 -0.029940462 -0.060561093
0.143971796 -0.030474544 -0.060163121
0.146729110 -0.028994747 -0.057178782
0.186655059 0.035815546 0.027248673
0.187850794 0.034170463 0.026370365
0.189125472 0.032667264 0.025672035
0.189983603 0.030475119 0.024080734
0.190901254 0.028397966 0.022632750
0.191080005 0.025116723 0.019617856
0.190664377 0.020891796 0.015366185
0.191779926 0.019202042 0.014399528
0.192894262 0.017519873 0.013439385
0.194003747 0.015839318 0.012477995
0.195112097 0.014166301 0.011523118
0.196215678 0.012494941 0.010567085
0.197318136 0.010830972 0.009617434
0.197947393 0.008434947 0.007701418
0.199080542 0.006841374 0.006836206
0.200033258 0.004976900 0.005610348
0.201374331 0.003720614 0.005184600
0.202712035 0.002462950 0.004755613
0.204048229 0.001206752 0.004327160
0.207014133 0.002411245 0.007169368
0.210111284 0.003785205 0.010247706
0.213238242 0.005174252 0.013357448
0.216393469 0.006575637 0.016495084
0.219575339 0.007986551 0.019657033
0.223019487 0.009750938 0.023304933
0.226514220 0.011554625 0.027019129
0.231994731 0.016189467 0.034559778
0.235591376 0.018052787 0.038388974
0.239228922 0.019938943 0.042263270
0.242903686 0.021842074 0.046175002
0.154086900 0.083333145 0.049251722
0.155318462 0.081462526 0.048186182
0.156546062 0.079597517 0.047123688
0.157771484 0.077741634 0.046068569
0.158991315 0.075887850 0.045012254
0.160207256 0.074039543 0.043958893
0.160989276 0.071349750 0.041864068
0.162196536 0.069516398 0.040819890
0.163400004 0.067688415 0.039778624
0.164601503 0.065869242 0.038744560
0.165797586 0.064052112 0.037709341
0.166989957 0.062240257 0.036676990
0.167810474 0.059738666 0.034781779
0.169046089 0.058036916 0.033877998
0.170276636 0.056336297 0.032972401
0.171503890 0.054640092 0.032069099
0.131661779 -0.022448824 -0.063391403
0.132829980 -0.023715836 -0.063923047
0.134138485 -0.024722624 -0.064129146
0.135883115 -0.024942411 -0.063343970
0.137458485 -0.025472708 -0.062948301
0.139034297 -0.026006174 -0.062555370
0.140613415 -0.026537744 -0.062158769
0.142193047 -0.027072385 -0.061764774
0.144526373 -0.026300332 -0.059708101
0.186256130 0.042502817 0.029002766
0.187695837 0.041247144 0.028636320
0.189098347 0.039932012 0.028192558
0.190572498 0.038742888 0.027908545
0.191769814 0.037091084 0.027030134
0.192962287 0.035440226 0.026149865
0.194057071 0.033636171 0.025069346
0.194907788 0.031440498 0.023480179
0.191929448 0.022986231 0.013802666
0.191654454 0.019030206 0.009910775
0.192763190 0.017351210 0.008956282
0.193868948 0.015676809 0.008004439
0.194971761 0.014006992 0.007055242
0.196071633 0.012341702 0.006108651
0.197235496 0.010786389 0.005302315
0.198406008 0.009249162 0.004516840
0.199753299 0.007994481 0.004098741
0.201361951 0.007147823 0.004214629
0.202922196 0.006225377 0.004231411
0.204482591 0.005302700 0.004248061
0.206045202 0.004382901 0.004268689
0.207520033 0.003330187 0.004113872
0.209908817 0.003648255 0.005773435
0.213107846 0.005157012 0.009018322
0.216249969 0.006550687 0.012122167
0.219422538 0.007959736 0.015257853
0.222623953 0.009381332 0.018421799
0.226100463 0.011172788 0.022091513
0.231554278 0.015784708 0.029549500
0.235133880 0.017638284 0.033336531
0.238751842 0.019511367 0.037163804
0.242411016 0.021407432 0.041036227
0.246107656 0.023320541 0.044946068
0.154085866 0.082895981 0.044376224
0.155314549 0.081036491 0.043325984
0.156537558 0.079179007 0.042274416
0.157756717 0.077327170 0.041225973
0.158972050 0.075480921 0.040180612
0.160185241 0.073643518 0.039142341
0.160962685 0.070961366 0.037064834
0.162167246 0.069138733 0.036035540
0.163366335 0.067318074 0.035005010
0.164561707 0.065502751 0.033977383
0.165753413 0.063692781 0.032952703
0.166941485 0.061888140 0.031930972
0.167722111 0.059326825 0.029968674
0.168951421 0.057628769 0.029070290
0.170179179 0.055938355 0.028178208
0.171401915 0.054249041 0.027284313
0.172464814 0.052276685 0.026034389
0.174302421 0.051730645 0.026561197
0.136046281 -0.021409161 -0.063716201
0.137255897 -0.022603183 -0.064152685
0.138833224 -0.023135438 -0.063760142
0.140413885 -0.023665707 -0.063363852
0.143106858 -0.022239906 -0.060502716
0.185108964 0.047960893 0.029134980
0.186776091 0.047084794 0.029255614
0.188471835 0.046257056 0.029437821
0.189964483 0.045079124 0.029176506
0.191537518 0.044041069 0.029091929
0.192944468 0.042722790 0.028650437
0.194347745 0.041402968 0.028205416
0.195716704 0.040030419 0.027691505
0.196910782 0.038372804 0.026811151
0.198165386 0.036823966 0.026067119
0.198270698 0.033399230 0.022912572
0.192697558 0.020760761 0.007899496
0.192895558 0.017608389 0.005052982
0.194271139 0.016377003 0.004675294
0.195645266 0.015146913 0.004298002
0.197267206 0.014313629 0.004433264
0.198820706 0.013370928 0.004427132
0.200374294 0.012428224 0.004421041
0.201948666 0.011517704 0.004456912
0.203540421 0.010633480 0.004527296
0.205105958 0.009707995 0.004544127
0.206671691 0.008782346 0.004560914
0.208237674 0.007856593 0.004577746
0.209811595 0.006942308 0.004609827
0.211378106 0.006016237 0.004626659
0.213294127 0.005610321 0.005329323
0.216109078 0.006528293 0.007782845
0.219270416 0.007932529 0.010888624
0.222458409 0.009346314 0.014018439
0.225677413 0.010775617 0.017180356
0.231115054 0.015379785 0.024576629
0.234679803 0.017226640 0.028325954
0.238280532 0.019089871 0.032110998
0.241922098 0.020975852 0.035940490
0.245600831 0.022878767 0.039806888
0.154631083 0.083584068 0.040891987
0.155856689 0.081727055 0.039848719
0.157076677 0.079872107 0.038804211
0.158292780 0.078022694 0.037762690
0.159506788 0.076182268 0.036728370
0.160715274 0.074343891 0.035692858
0.161489749 0.071664674 0.033629047
0.162691331 0.069844391 0.032606530
0.163887439 0.068026035 0.031582735
0.165079886 0.066213082 0.030561924
0.166268671 0.064405442 0.029544007
0.167453804 0.062603059 0.028528942
0.168212213 0.060007914 0.026534518
0.169440368 0.058315555 0.025646267
0.170663457 0.056624218 0.024756123
